# 3D point list with one line of data per point:
#   POINT3D_ID, X, Y, Z, R, G, B, ERROR, TRACK[] as (IMAGE_ID, POINT2D_IDX)
# Number of points: 375, mean track length: 5.6748275094591589
2983 -4.3024542911916575 0.33739236252832977 3.5103472264536246 68 81 101 0.70143775144523279 95 1410 97 1356 96 1428 98 1377 99 1332 98 1374 100 1231 101 1251 102 1219
2984 -4.525702914618714 1.1014554123023348 3.6161600083136216 244 245 247 0.57103442287232498 85 1594 83 1709 80 1828 79 1617 91 1452 92 1389 93 1382 94 1416 78 1733 77 1799 95 1320 97 1225 94 1370 95 1270 96 1298 96 1348 98 1240 99 1225 100 1163 101 1136 102 1142
2985 -4.6794428991799943 1.5134523924484136 3.616854493322446 190 193 194 0.81641302768159452 86 833 80 1346 97 712 88 1314 92 1019 95 782 93 509 96 781 94 851 100 640 102 414
2986 -0.71648985532452225 0.47446522822212117 5.6115623367539333 61 61 63 0.88617713216034621 95 898 97 597 98 618 101 754 102 540 93 669
2987 -5.5326435141056161 -0.87702474372422645 9.4879602775388463 53 81 72 2.0227101419087248 95 1329 96 1354 98 1268
2988 -1.2086551088183781 -1.6678428523810322 10.347738956990188 52 74 87 2.4594094255000307 94 18 97 2
2990 -3.7597493915974876 0.34939908714943096 3.5590064155542604 92 102 114 0.27642075235594643 87 800 97 212
2992 -3.0109569927483109 -0.97200850043875764 6.3227888631988431 85 100 122 0.45324427083071289 85 583 96 10
2993 -3.1484079262258486 -0.686913778450706 6.0809569648440887 35 57 68 1.7004428418972246 90 102 97 467 96 50
2995 -3.7414719726549697 -0.25209513919186138 4.126301608945397 0 0 0 0.59841154026799193 79 627 87 128
2996 -2.4460799711920833 0.42754114614586936 0.78133665018174203 22 35 42 0.22435412585655623 90 724 96 155
2997 -2.6622076305078455 -0.041894672689381546 5.6288916153527992 44 57 74 0.39057829256550169 75 278 96 167
2999 -3.8705661363813002 0.20550883481608487 3.9694599629858427 31 44 53 0.30348601642086948 97 573 96 210 98 583
3000 -4.0773982081725597 0.30503140199858225 3.7372539364764426 114 132 144 0.35716837520727318 87 790 96 238
3003 -5.5043871312363102 0.4880540935803504 3.8282171364917446 200 212 227 2.6122281117216688 77 341 88 329 96 315
3004 -5.9858020602242394 0.60973372778743506 3.5355049097297693 197 211 223 0.28896839078493741 94 357 96 350 98 289 101 552 102 286
3005 -1.262599337969275 0.78423114024704044 5.4269309002768011 74 76 75 0.70364580010605948 90 1061 96 358 100 548
3006 -1.2549979201363417 0.8076003477022633 5.3566211456561366 170 174 173 0.058212172624926145 94 769 96 361
3007 -6.3623201625022068 0.62625289097073411 4.0230968947917809 89 97 99 0.6750470774261097 95 346 96 364 99 313 98 295
3009 -6.0462018204560888 0.67587392992800965 3.5012577761051489 167 180 192 0.14419762535001301 95 353 96 378
3010 -0.71282654603268469 0.96127631724252716 5.8393607790841253 198 198 200 0.73364274273250885 82 936 96 391
3011 -1.0654907000169891 0.99545694564759712 5.5396686939305866 188 189 191 0.34238872925955066 90 443 97 337 96 398
3012 -2.9933334738030188 1.0211859387244393 2.4796217397656215 46 51 54 0.22553718546223789 95 404 96 423
3014 -4.3486397335740357 1.0307641405144037 3.65712685141875 130 129 135 1.1136127759254304 93 424 96 429 99 395 101 331
3015 -3.0209225115891072 1.1007052890272906 3.8162289140579979 75 79 80 0.12149575353411723 95 407 100 336
3016 -3.224402585262605 1.0796599050418676 3.0974801280366586 44 52 55 0.15414080277694631 94 450 98 376
3018 -3.5322206471941651 1.1912069551142301 4.2144713026612042 50 55 58 0.35661962458123941 85 520 96 455 101 347
3019 -3.5044695024929289 1.2009671147463159 4.1557597424140731 88 93 96 0.13961377543649189 93 459 101 601
3021 -4.0422740263889256 1.3275543190673122 3.921014299663319 87 94 97 1.8912618259981271 89 526 96 491 98 425 95 449 99 928 101 985 102 637
3023 -5.4553614635372432 1.5199179317365028 3.8444991943580398 67 72 75 0.79239599300600561 93 792 98 740
3025 -1.5077555863013472 -0.14681847949583074 5.1592104560272016 136 148 162 1.7507015144083664 92 883 96 568 93 850 94 905
3026 -4.0657246099964475 -0.097614584465371496 3.6940318000501309 72 100 114 1.9823119911433771 93 851 97 496 102 473
3027 -2.5316214408720921 0.35043967596152148 1.2086709059800174 49 61 75 0.29704283396247211 94 661 96 584
3028 -2.1496534127384801 -0.12287239575916695 6.0515025108734477 160 172 186 0.5273638971326301 93 597 96 590 98 556
3029 -3.6326937846504301 0.069929153573562761 3.8012110018917369 50 62 68 0.78601107122945146 93 610 94 659 96 600 98 561 95 866 102 723
3031 -4.7562523297899109 0.063033751229205112 4.0177592900566443 40 58 70 0.26894684638385907 97 793 96 609 98 570 99 831 102 727
3032 -1.949620313153221 0.0010948145181268361 4.1778357818342382 0 0 0 0.15777155225861039 78 1096 93 585
3033 -3.1433268022772496 0.33021297139152245 2.6625355608666772 62 75 92 0.65073154318777349 82 373 96 623
3034 -3.500705654502831 0.29847060365692513 4.4867802568638195 33 49 62 2.9550332851274077 92 1102 93 895 96 635
3035 -3.5890558718383496 0.2931452335055274 4.2347303278034909 86 100 112 0.48479505512075671 93 648 97 205 96 636
3037 -5.4387236757604454 0.53152086271012644 3.421042436224532 170 184 197 0.1757094197235127 92 321 95 301 96 672
3038 -6.011746460028963 0.58834656597304591 3.5742930132321287 55 69 79 0.601321991809736 95 329 97 286 96 680 98 278 99 644 100 274 101 256
3039 -5.7956883946372981 0.62836647012509916 3.4597039193367354 130 134 145 2.0235264099624142 91 748 96 684 98 650 99 882 94 765 100 557
3040 -5.2003861037085555 0.65597685869266253 3.2813586857529695 154 157 161 0.1646837898731941 94 766 99 304
3041 -6.1010907056382289 0.76466901017179256 3.5321219182180172 173 181 196 0.23482490682705559 97 335 96 709 98 327 99 341
3043 -5.9848371189365945 1.1677844256897898 3.3760284827736968 132 137 140 1.0561390738949328 94 829 96 764 93 983 99 926
3044 -4.5634909599572957 1.3283252267760441 3.6607479797651949 54 53 58 0.15279121074282676 97 420 96 770
3045 -4.5610876959106248 1.5702622946985887 3.6467925141025241 86 90 91 1.5979207500803427 97 715 96 782 99 750 78 608 100 971 93 1169 101 639 69 619
3046 -4.1256278503317736 -0.018364916769065237 3.7055692742473507 141 154 172 1.3437335279742182 97 780 96 834 98 996 99 993 100 997 101 1109 102 988
3049 -4.5334868125842469 0.44998761483383221 2.3430142665811693 155 165 175 1.418235402863864 97 812 96 885 99 850
3050 -5.5305753975115168 0.57849964661617159 3.3500953292095139 87 98 114 0.38516341306370749 97 835 96 903 101 772 102 773
3051 -5.6375214707671901 0.63104461297334502 3.2729144930110254 151 155 164 1.0821214837401882 95 918 96 909 98 875 97 842 99 881
3052 -4.9169687953953005 0.7674346138160737 3.4528665805242205 96 100 111 0.97809884865431762 93 936 96 918
3053 -5.0294972142681438 0.93309991703892015 3.1863699129920646 78 87 96 1.1028869335627844 94 798 96 944 98 896
3054 -6.1859388989289625 0.97709896292736209 4.2564190166216767 75 84 91 1.1895921097636157 97 874 96 950 98 1074 102 618
3055 -4.6189048501595309 1.0118766126194774 3.503569133654445 59 57 62 1.1776950091381631 94 1020 96 951 101 813 100 799
3057 -5.878965042802224 1.4477814231744845 3.5490815034005401 89 97 99 1.042126904880732 95 985 96 989 97 711 99 948 101 852 102 853
3058 -4.6338831425239082 1.5873704219480074 3.7305918609025155 86 90 93 0.62441252275712344 94 858 97 922 96 994 99 752 101 854
3059 -2.8547386450723753 -0.53416445234791188 4.1621155906435163 0 0 0 0.14100281949507534 91 1090 94 1068
3060 -1.4476312831469609 -0.49378268789392421 5.1174200207261187 25 38 54 0.62137300640099469 94 878 95 1005 96 1011
3061 -0.93309712270795442 0.38977842147396902 6.125735893684479 0 0 0 1.659246057220702 88 1478 94 1144
3063 -2.1331993683855544 1.2289467525882756 6.5870659752731706 88 94 97 0.0093213009805817836 90 1306 101 965
3065 -5.0832204524220215 1.1847206110608264 3.2811595214980138 66 70 79 0.5545771942448311 93 1265 94 1207 96 1144
3066 -4.6017013000184388 1.4281657061140629 3.6172027765019896 184 185 190 0.77503751159011969 97 1079 96 1152 98 942 99 943 101 849 102 851
3067 -4.9490856497735507 1.5667365257154011 3.5217096373895278 57 61 64 0.65332267331122562 82 1234 96 1155
3070 -4.3114802793413007 0.066759873461698704 4.0268371626074808 135 148 172 0.79569855942821854 93 1298 96 1183 99 1192
3071 -0.65814684552530089 0.20976008555992609 5.5510227015239488 56 60 69 1.0211464300671147 94 1271 95 1249 96 1188 98 1139 99 1002
3074 -4.7161335051946978 0.82499017525598273 3.1440503154957562 76 83 92 0.6329937005025732 94 1360 96 1215
3076 -5.4515410538300113 1.0801665223896584 3.2233542253194338 169 174 177 1.0114382610191122 92 1163 96 1234 98 1078
3077 -6.3515916149910581 1.2272862194276042 3.8307476136773451 37 42 44 0.89480281863767186 94 1211 97 1171 96 1243 98 1092 99 933 100 1121
3078 -6.3895062572096171 1.3050967990565319 3.9187355865954911 134 138 141 0.43982983269904991 97 1177 96 1247 100 1071
3080 -4.9187010357286587 1.6884307294204188 3.8442420423120893 63 65 60 2.2100238992096477 87 1401 96 1254
3081 -2.98714796171509 -0.46480480437888771 3.5566696201494707 82 97 118 1.3772381529692899 86 1489 96 1257
3082 -3.61170673237118 -0.46501670179408139 3.7968954416460887 82 108 134 1.651150736155663 95 1233 96 1259 102 1061
3083 -4.8206861969707182 -0.46060857140818745 6.4856702222058553 140 189 194 1.4840689175119508 94 1391 95 1168 96 1266 93 1355
3084 -4.7373800261702188 -0.42260271569302976 6.1366303817134886 140 189 194 1.2826879803680795 94 1392 97 1242 96 1267
3085 -4.3550040050393193 0.029393992065865862 4.0014333232387944 70 93 121 1.6871344039747405 95 1176 96 1272 98 1006
3086 -2.9210293781314132 0.19485810724397473 4.3781534043984616 50 64 77 0.93839224893128714 91 1378 97 1198 96 1274
3087 -4.879560652443331 0.38012229663176667 3.4370433267377316 144 156 168 1.5758672736508414 96 1279 98 1274 99 1202
3088 -6.4304132059100958 0.6259218235779419 4.0233705302650096 213 221 222 0.37759994803887015 95 1199 97 1209 96 1287
3089 -6.4262242458837644 1.0076547498170041 3.824703380218172 73 74 78 1.5808972606580547 97 1223 96 1296 98 1239 99 1260 101 1173 102 1144
3090 -5.0734678087533567 1.4217362609045319 3.4239088176451391 26 33 41 0.69317006440684781 94 1421 97 1233 90 1602 99 1232 101 1089
3092 -4.7843974074364581 1.4754653658524641 3.5837058700397177 210 214 217 0.68848022774785811 97 1274 98 1293 101 1148 102 1116
3093 -4.3910145762290185 -0.18086526153367938 4.9292652051540395 78 120 134 1.7054540789970851 95 1296 97 1298 96 1355
3094 -4.6721303912475367 -0.05240047494115551 5.1397364681941982 66 93 122 0.97831140868709454 95 1330 97 1303 96 1357
3095 -5.0253001613419226 -0.052166255601450377 4.533011268067983 66 84 84 0.73189168715988517 95 1352 97 1302 96 1369
3096 -6.5553209144125146 1.2943817779477935 4.0293155689161706 0 0 0 1.8448433548116245 94 1469 96 1382 99 1315 98 1368 101 1228
3097 -5.3313881781400934 0.9926746199753107 3.3277337698969824 103 112 117 1.8335224558414911 94 1502 96 1414 98 1364 99 1326
3099 -4.7450659331969147 -0.92494182870322827 8.1361184958505692 164 199 201 1.8750429685640757 88 1648 89 1659 97 1358 98 1378 99 1337 96 1430
3100 -1.4963906822181086 1.2914305942365767 5.2728195525179968 0 0 0 0.68674514163274392 95 1412 97 1359 96 1431
3101 -5.3215383705929336 1.8599288855162639 3.935943488005317 0 0 0 2.2147526214020665 91 1558 97 1363 98 1384
3102 -4.58638806434577 1.3205074612894969 3.646408881437615 165 169 170 0.67539382095149492 82 633 84 593 83 955 86 492 87 571 88 489 81 632 80 1042 78 580 77 580 96 496 89 523 91 477 73 895 71 545 74 576 68 958 66 1109
3103 -5.9763518442455084 1.1689689799828071 3.4614517801130527 54 58 56 1.018945074217648 85 500 87 917 88 826 96 762 95 749 97 695 98 420 99 724 101 834 102 838
3105 -4.9763046894410259 0.50516110504232214 3.3645024761894269 154 156 162 1.7409039716592787 91 1173 96 661 89 1240 93 1098 90 1394 94 968 101 537
3106 -1.2834927258568836 0.50718457663613614 5.335110266033265 50 52 54 1.5797917986605403 95 1191 97 1132 87 1293 91 1174 94 1148 90 1391 93 1229 89 1491 88 1484 96 1201 98 1034 99 1014 101 925 102 755
3108 -3.8010092237241713 -0.42266700441502097 4.6494496154434062 121 138 154 2.6782946324193344 79 99 96 68
3109 -1.1202018647461016 0.2358600076598325 5.0144818368260671 22 26 32 0.26872688725874483 92 232 96 207
3111 -1.3765950999822605 0.40705798455602621 5.4404570115841393 0 0 0 2.0504594976294532 92 279 95 267
3113 -5.1797996255727314 0.35436615482962336 3.6104301362116114 79 96 114 0.11759306658614144 83 1103 96 881
3114 -5.050984389011048 1.4129033019947284 3.5344209148908052 75 82 88 2.0265524727342688 92 1357 96 1249
3115 -5.0093008107371135 1.5580870715536179 3.5315325985011663 0 1 0 1.3130414174895475 87 1399 96 1253
3116 -1.1190184306899211 1.0286076979835965 5.5201392012365975 250 251 253 0.64485588104919411 89 1505 84 1636 82 1705 85 1591 83 1710 86 1519 87 1560 88 1490 90 1515 81 1765 80 1853 79 1618 91 1405 92 1335 94 1294 78 1738 77 1807 76 1624 75 1712 74 1665 97 1215 93 1414 95 1314 98 1232 99 1142 100 1159 101 1058 73 1651 72 1723 71 1701
3117 -5.0379735641344965 0.55825922256895444 3.2947128613238439 168 173 173 1.9049699713543122 82 1135 84 821 85 1041 83 1131 86 957 89 752 87 1088 88 1015 90 363 81 887 80 1244 79 755 91 307 91 980 92 699 92 702 84 387 93 915 94 747 77 876 78 368 76 1005 75 1094 78 830 74 1111 97 262 97 615 96 320 96 670 90 775 94 329 95 660 81 884 98 637 99 276 99 625 100 757 101 240 73 1081
3118 -1.7514438946628494 0.8100823289532163 1.6877820127101595 0 0 0 1.5250147313066083 76 899 97 845
3120 -4.340521993197398 1.3714692916825346 3.7640742396252831 189 189 188 1.6914733720673667 89 857 85 552 90 533 83 1445 85 1339 86 1269 81 1515 80 1340 82 974 84 1197 87 1171 79 884 91 1054 92 1188 94 841 77 604 76 866 75 929 74 1381 96 774 99 937 100 630 91 484 83 966 92 801 80 635 101 846 72 581 70 1016 67 1023 72 1201
3121 -3.3937502270516138 -1.4767647100042922 8.3065138505572342 94 116 129 1.611454978858353 92 6 98 1 93 5
3122 -2.7390288265910243 -0.13043613203931159 2.0040193899713121 33 49 64 1.6716490131242103 89 53 98 12
3123 -1.320216882423672 -0.18752499067088332 5.2286076760761819 79 93 106 0.6937378741402247 96 104 97 494 98 74 102 87
3125 -3.9648920896237372 -6.8934227706003021e-05 4.6335195514196448 30 42 56 0.61480241922602341 96 1273 102 154
3126 -2.8730936241020526 0.20861490118003706 4.4027224895317065 48 58 74 0.11939108857954379 93 242 98 171
3127 -3.8072975917657845 0.33960021772515853 3.7298493197421489 78 88 100 0.3725224341998371 81 398 98 208
3129 -2.0559859996309475 0.16216259180829012 2.6932302342201329 0 0 0 0.65124986457424949 90 230 93 590
3133 -5.1237795324680979 0.56512392172863513 3.440497783887944 242 222 189 0.60752235764657014 96 673 98 262 100 542
3134 -5.4903231132707422 0.56113379814211917 3.0883083037060741 133 140 169 0.86322174375423899 97 275 98 263 99 277 100 541
3135 -5.6369468217086647 0.60476439089779643 3.3334304158762733 142 154 164 0.2574603210650151 97 282 98 276 99 294
3136 -5.9481334088011861 0.59042156811813951 3.5442575156343161 61 77 103 0.59917068367422754 95 670 98 281 99 643
3139 -1.1993938519848724 0.94076634273922233 5.5176747964686559 188 189 191 1.3558866498547326 89 1065 91 1018 98 315 92 964 97 856 102 582
3141 -6.4029531095904018 0.9510184257989841 3.7250404994055426 140 144 143 0.46164557583210009 96 426 98 378 99 397 100 345 101 338
3142 -4.5713403165544042 1.1737720173235879 3.6255752195939452 166 165 168 0.32831946453565913 97 402 98 405 100 362
3144 -5.3497198762306475 1.2177281868983123 2.5114757631367222 117 118 123 0.11417494698283473 97 424 98 435
3146 -4.4944418502692267 1.5501017605728473 3.818320194782074 0 0 0 0.520180906633396 90 552 95 784
3150 -3.0778981255082765 -0.049998411774278655 2.4833003744348714 133 154 166 3.0584498273072347 91 1129 98 496
3152 -0.83113917261237269 -0.26327136855093514 5.467442632113463 70 41 60 0.54900277567804734 96 559 98 520 102 703
3154 -3.8905943292739695 0.21942354131867289 3.7482269349673967 72 84 96 0.43516154808971996 94 945 96 626 98 581
3155 -2.3696574453653798 -0.19238833223133497 10.111769027973072 40 48 59 1.9619830561942921 83 1084 98 589
3156 -0.57670765669249213 0.29481018831299777 5.5781771165520553 96 100 103 0.6495123105521059 95 616 98 590 96 227 100 168
3157 -1.0927488127714478 0.49179693278610254 5.6661508172800739 55 56 60 1.4182000362113949 95 902 98 621 99 607 101 532
3158 -4.4880869524366078 0.65857701658753354 2.9833289548843358 26 36 48 0.1401863460234119 95 673 98 642
3160 -4.9184264943485312 0.8116959719171094 3.2927595875787188 95 104 111 0.86181125330435393 94 998 98 663 101 798 95 1086
3161 -5.6202659991607486 0.9376552052827265 7.3879887054778015 72 79 87 2.2129835659143837 90 1068 98 668
3162 -4.3632115605461577 0.96845134351218976 3.7057323941886122 171 174 179 0.44921319123037962 97 665 98 682 99 683 102 609
3164 -5.3959420650122984 1.4215411686435049 3.1044869329651812 113 117 118 1.6337653334829854 96 988 98 739 102 651
3169 -3.6332992842929683 0.038436982711747503 3.7962624138555947 191 202 208 0.6602861181002414 96 1041 97 533 98 808
3170 -3.5230850584647491 0.097224247102672384 3.6906810946271844 130 134 143 0.71147373670840541 96 846 98 811 99 822 95 870
3172 -4.6713792897489546 0.95655576211558047 3.4732444909681277 220 221 226 0.77478092444560065 97 865 98 898 99 896 100 795 101 808
3173 -4.9114119352333789 1.3290760461299782 3.4245194682470559 56 61 65 1.1702298260391077 95 977 98 938 100 631 96 771
3174 -5.6159491749355288 1.4399344085545127 3.5795064526592566 103 108 112 1.0001469654286339 93 788 98 944 100 637
3175 -5.7799473869034612 1.4114807357457018 3.1840910329865899 86 91 91 0.53248288501698904 95 778 96 987 98 948
3176 -4.9579278465037202 1.5743042785502668 3.4826275004135949 0 1 0 0.57149786949905446 92 1198 98 952
3177 -2.4744971936837428 -0.69618304880481641 4.9294167328285559 81 97 112 0.77240306188717955 96 996 98 957 101 648 102 660
3178 -2.6881130703690581 -0.56442654747210197 4.666975321160252 99 112 128 0.56329825053039462 95 993 98 959 99 1085 101 653 100 835
3179 -1.3858967225472349 -0.53479928124787257 5.4133672337549541 28 44 57 0.68143673960858853 89 1160 98 969 99 959 90 1348 100 844
3180 -0.40625366985205269 -0.36234225689838923 5.8353988719629575 152 73 94 0.15485216998584303 88 1459 98 986 100 859
3181 -3.73100491290479 -0.29391703881498465 4.2806211066689155 97 108 124 0.68027568866972832 96 1025 97 964 98 987
3182 -1.2492551644573953 -0.28368467274741405 5.3921922859858569 64 77 94 0.92012717036586389 94 1388 98 990 99 983
3183 -1.5207634057804991 0.021902977895290686 5.2067827097152541 21 34 43 0.14894212063026621 96 1047 98 1004 101 730
3184 -0.33543018049522416 0.52116560683337976 6.037406696160728 51 55 58 0.98761566791095545 89 1393 98 1035 90 1493 101 926
3185 -0.8870902697549039 0.81865748810922523 5.6110825620497504 230 230 232 0.20126283719609525 94 1168 98 1047 99 1026 100 916 101 777 102 784
3187 -5.0591114481313708 0.92684428097869653 3.320633608699159 78 88 98 1.0409234370290728 93 1121 98 1068 99 1040
3191 -5.2671631557134457 1.3724879498374565 3.3221790207951978 112 115 120 1.6452178935101771 84 1431 91 1058 96 776 98 1102
3192 -4.0015511763902554 -0.12164374881439344 3.9504087829605767 123 139 158 1.7485805204768459 96 1173 98 1127 100 1085 101 1010
3194 -5.7428478650303605 0.78577605323368815 3.3241299290955371 78 88 100 0.68794498626034839 96 1216 98 1168 100 928 101 1057
3196 -4.3827318121420555 -0.56691995350426538 5.9650465551268619 133 170 176 0.90421125803247315 74 1017 98 1206
3197 -1.4073725004740218 -0.073624267703995716 4.8529191141886709 34 46 62 1.7375023357056023 96 1324 97 1244 98 1209 99 1107 101 1011
3198 -4.1954381305799338 -0.10143512733280061 4.0462221874072197 74 101 117 1.5874419392281591 96 1270 98 1211 99 1239 100 1086 101 1161 102 1156
3199 -0.87261867118504677 0.21220022772463593 5.8697053441492315 25 30 33 2.2268229578517951 94 1337 98 1215 99 1196 100 1012 102 1000
3200 -4.9364229787220397 0.95084240162388345 3.1560623000616546 26 35 40 1.2554982814663225 97 1222 98 1237 99 1221 102 1030
3201 -4.9430011950370938 1.585481138530662 3.6204450613661661 62 67 70 2.0139466074244301 92 1398 94 1379 98 1256 101 1151
3202 -1.1786083337834878 0.74145943971171613 5.4714225166768085 201 203 202 0.30431352643681309 95 1337 98 1280 99 1252 101 1168 102 1133
3203 -5.8817221286671053 0.91145908882178073 3.4750567858726717 117 126 141 1.9483842239143201 92 1334 98 1286 100 1162
3206 -5.9182828750522241 0.58144915692909083 3.6484205883743845 78 94 120 0.82836559673186583 96 1372 97 1308 98 1323 99 1295 100 1196
3207 -5.0963029504472592 0.65369287516829455 3.2268573096878614 149 155 164 1.0634872173343319 95 1357 98 1324 99 1281 98 1304
3208 -4.9074536666729864 0.62193332294534032 3.3473918427576614 221 233 237 1.5430028935387405 96 1421 97 1343 98 1362 99 1311 100 1211
3209 -2.2774225638629337 -0.2869055927195201 5.1281824157406124 24 38 50 1.8979293455499033 96 1426 97 1350 98 1372 99 1329 100 1228 101 1235 102 1212
3210 -4.9892429032122214 1.737921499735229 3.126813638406591 0 0 0 1.9681683672418362 92 1491 94 1522
3211 -4.9966619931443246 1.5039741533274342 3.5574962475426481 30 32 34 1.6130333816893805 98 1295 89 1551 93 1393 94 1422 97 1276 99 1233 100 1167
3212 -0.76711414587450688 0.52664913282830339 5.7200302487723613 165 165 162 1.1472028531646923 88 731 81 909 78 1162 77 429 76 1038 75 1127 98 232 84 833 87 378 90 342 79 783 92 687 93 681 94 306 95 652 97 241 96 288 99 247 100 521 89 1016 101 219
3213 -4.8575767716981266 1.4616149691436509 3.5683759823546843 158 161 162 1.6105567260105194 82 1461 85 1343 83 1450 86 1274 80 1559 90 1126 72 1516
3214 -4.6843535074954232 1.124412362668753 3.5649319730248306 228 228 228 1.06949847396941 91 441 97 397 98 699 82 944 84 901 85 867 86 454 87 915 88 453 81 568 79 479 91 1035 92 445 97 883 95 958 93 452 96 958 99 708 100 808 100 949 101 602
3215 -5.0747204753422963 1.1293408863975976 3.2830691203092819 67 73 80 1.2853144509335277 82 1427 84 1402 85 1318 87 1371 88 1424 90 1429 91 1332 93 1142 94 1200 77 1609 98 923 95 965 96 1129 99 1059
3218 -3.0838042712239417 -0.61032755447524478 4.3384576493684941 46 63 79 3.2237215459734148 74 31 98 757 99 463
3220 -2.7403232370993238 -0.96082243146094559 7.1271476344639586 48 70 79 0.84589155159416818 84 639 99 31 85 590
3222 -3.5156527496273253 0.0071549904239250174 3.8015199646022797 90 99 108 0.10823062083174094 94 186 99 127 100 99
3225 -4.1138496062931873 0.28161831183445085 3.6275349820211988 132 148 161 0.31991314750958882 95 223 99 209 100 171
3226 -5.227889941418856 0.63862899275581642 3.3134042359427132 235 245 251 1.2348319180828176 92 352 96 356 97 291 99 295 100 273
3227 -4.9838404820006428 0.65606532325180256 3.2209500323516118 160 174 183 0.30707645354133389 96 351 98 288 99 298
3228 -5.8475926225198824 0.61128430532010258 3.460849629885606 121 130 139 0.46808156861218359 89 358 97 289 99 299 100 550 101 551
3229 -1.034026170288189 1.0722009581377241 5.5514260484243954 137 141 142 0.83480071460686134 95 714 96 411 99 352 102 600
3230 -4.1458076822746035 0.96508960297600666 3.8754800836439713 22 28 36 1.5944073298758159 94 799 99 364 93 415
3232 -2.958972241129036 1.022606075331105 1.537860309535797 85 89 92 1.2514270714832165 88 1102 92 998 99 394
3233 -3.034616836501685 1.3011277020885903 8.2849933244293048 50 55 59 0.84583786882855427 95 403 99 399
3234 -5.374875486417217 1.0391986281294414 3.2559184285767433 86 90 95 0.17750583631548741 93 434 99 403 94 448
3235 -2.6397029849003477 -0.60372047476048007 4.7070273599669807 47 65 79 1.0227388612339645 90 1149 99 467 100 656
3236 -1.563521948421625 -0.89906295736607289 7.4003507945022182 48 67 74 0.48113072257321099 96 799 99 488 100 670 101 416
3240 -3.7975392885309951 0.26602565347361462 4.3937509461481392 180 194 207 0.3140568473058265 91 967 99 592
3242 -4.9008455922334067 0.75956339695797337 3.0724805331720213 169 178 185 0.94162912240584629 95 696 99 660
3243 -6.492079017966975 0.8546844036005774 4.0448827273811023 170 184 193 1.5172962393394798 98 679 99 681 100 584 95 719
3246 -6.3182175399793286 1.1090827222232365 3.7645604891912328 85 88 93 0.69881321269411223 97 1061 99 719 98 1082 99 1162 100 614
3247 -5.4068564635942549 1.3947951762749897 3.2465573867950828 102 106 110 1.3013015634392144 91 488 99 736 102 648
3249 -2.5565060736863434 -1.2750407945504714 7.5137648357702167 78 90 112 1.410610168394826 96 783 102 659 101 646
3250 -2.8027594910321336 -0.79363120528488174 5.0221051742967804 78 94 117 1.2319992425677975 95 789 96 784 99 756
3251 -3.1522240750104964 -0.83453375416973385 6.1264655848238627 97 113 126 1.8906035135441388 94 1071 97 733 99 769 101 657
3252 -2.5483078974026325 -0.410968182766007 4.7222460427751631 65 78 87 0.44321224304836088 92 1049 99 781
3253 -0.75814466328101138 -0.36801069572181111 5.3801023608422396 0 0 0 0.072793034294664272 83 1490 84 1255
3255 -1.5415976820444981 -0.30127817553481018 5.2212778473391106 55 65 78 0.69500774110612407 95 1019 96 818 99 793
3256 -2.6658435793253492 -0.10495243223638244 4.6371201999736371 110 125 134 0.72503259678220733 97 774 99 808 100 702 102 715
3257 -1.0630589203318372 0.47811702574587073 4.7845648502086977 165 164 169 1.5851940564343969 96 883 98 835 99 852
3258 -6.0327004902900825 0.61608524027222011 3.6535198300441216 206 220 231 0.50205323621192355 97 844 99 880 100 920
3259 -6.0838411328080557 0.80296438286914884 3.5271258673425017 96 108 122 0.86793333606253553 97 1037 99 893 100 789 101 955 102 926
3260 -1.5180640208452716 -0.55793267112926026 5.258541785481893 33 46 62 0.27656634430234234 96 1007 99 958 95 1001
3261 -3.3368970103210875 -0.80944194864491015 6.297001053706599 101 114 133 1.9523156936276296 97 942 99 960 98 964
3262 -0.54822653326335735 0.27686004778144274 5.6490286146094277 91 95 99 0.24169171765969313 97 988 99 1006 101 915
3263 -0.63055444456589371 0.57179743840087938 5.697509855687982 70 72 74 1.1933376263075186 85 1431 95 1192 96 1077 99 1016 101 759
3264 -0.49576997613610907 0.61231194672557387 5.8112934742250246 63 66 69 1.8611202556919835 97 1012 99 1018 102 761
3266 -2.7057511411328492 0.9907414128943004 1.6558503401470781 87 96 95 0.59832287243748672 91 1331 99 1039
3267 -4.8094934115294095 0.98763860035485773 3.4158282813036869 168 169 173 0.77195082299864404 95 1108 96 1117 99 1046 102 809
3268 -4.8883252335205727 1.1481884394965109 3.4384793797133426 164 166 170 0.49481329718915329 94 1307 96 1236 99 1057
3269 -1.0631883981322916 0.27631227485562621 5.5787168042968007 23 28 32 1.1479043027915494 91 1383 98 1216 99 1122 100 1015 101 1026
3270 -3.0811491257387487 1.4067397913310049 7.0433748601112613 69 72 77 0.57138553810502701 91 1328 99 1158
3271 -3.0490369540895901 1.4303974555438601 6.5433112872290335 0 1 0 0.39655817858102482 93 1261 99 1164
3273 -2.6065932968505634 -0.36224321361746448 4.7128841649169013 43 55 67 1.5418960056998487 96 1260 99 1181 100 985
3274 -3.4387393901992862 -0.65893127288227415 6.7264472406972251 140 159 178 0.49698503560624346 97 1095 98 1205 99 1182
3276 -5.0054321123730752 1.0366962477400481 3.3015965966959127 26 35 40 0.94984206166711316 95 1317 99 1223 101 1075 102 1037
3277 -0.92889579221465224 0.95439416667383259 5.6250904075147465 41 42 44 0.26059106390531567 96 1344 99 1257
3278 -5.1339175503395333 0.037045553020303566 4.6737415673512501 114 135 164 1.4115585058818605 97 1284 98 1299 99 1278 100 1141 101 1163
3280 -6.2126021768805257 1.327507578680776 3.6823819719136157 130 134 135 1.4491483955386302 94 1470 96 1386 98 1353 99 1316 100 1216 101 1229
3281 -5.7733578133987153 -0.68025119805117773 5.6409003219115883 0 0 0 1.5270805888547294 96 1436 97 1362 98 1383 99 1342 100 1241 101 1266 102 1231
3284 -4.9820422985068369 0.5257926068493034 3.3120740648405813 242 246 249 1.142551170120869 92 313 94 320 99 268 81 882 80 1242 78 1144 95 298 89 325 88 340 90 344 92 320 94 742 98 251
3285 -3.6021729810923442 -0.017318686871726441 3.8291622753830201 161 176 184 0.41810159120131252 92 177 94 176 91 160 95 140 99 122 97 129 98 98
3286 -4.2620635045673936 0.36063549364390268 3.6744004967193487 51 64 72 1.8265606905441725 89 280 82 848 85 314 83 817 99 233 84 789 87 804 90 745 95 259 98 215 100 201 73 773 71 822 67 914 69 1216
3287 -0.35397896279588448 -0.44335837636280073 6.1354047028181551 60 30 34 0.59355230480203114 93 833 94 1089 97 960 99 971 96 808 98 503
3288 -4.5010353016472164 1.1078053572742623 3.6133782996085775 179 180 182 0.92410377674094002 82 939 87 523 88 449 81 981 99 409 93 446 96 452 98 392 101 345
3289 -3.8949968725256245 1.2109353178000339 4.00780976903284 51 56 60 1.6315516979347435 78 567 83 946 86 475 97 684 99 425 82 1710 84 1689 85 1600 81 1767 89 1434 82 1662 84 1641 85 1558 87 1489 88 1501 90 1436 86 1483 80 1778 80 1854 79 1532 91 1454 92 1419 93 1145 94 1201 94 1373 77 1707 76 1528 75 1680 74 1586 95 435 97 1267 98 921 73 1602 72 1403 72 1597 74 1374 71 1635 70 1286 70 1681 68 1583 67 1806 66 1932 102 389 102 1041 63 1736 62 1982
3290 -5.3029325766996651 1.1572964119674909 3.2129974983823182 67 71 75 1.6909983698251283 89 1309 84 1409 85 876 83 1579 88 1089 81 985 79 1307 92 999 97 693 97 1268 93 1385 96 1301 98 929 98 1288 99 1165 93 1333 98 1243 102 1045 102 1146
3292 -4.7668038830548092 1.2057166903403744 3.5685702356635591 214 214 214 1.1388387245919556 95 746 96 477 99 721 89 1104 92 1000 90 512 97 897 98 411 101 612
3293 -2.6323946584403615 -0.52158837559202642 4.6575149287386264 45 61 74 2.0990447871797211 93 1175 95 998 99 768 96 1006 98 769 100 841 101 406 101 865 102 868
3294 -1.5875337465112271 -0.012607276399404526 5.1689594085399735 106 120 129 1.556942748703509 86 1131 93 1065 99 818 91 940 96 839 101 724 102 492
3295 -1.1561489229400477 1.2241687610214087 5.6407154306362166 21 18 14 2.1009704242581617 78 1650 86 1398 99 1044 77 1633 95 1112 100 938
3296 -4.5718302468943328 1.2438947707246637 3.5753630090360851 238 239 238 0.65435185738278301 82 1451 84 1573 85 1123 83 1587 86 809 87 1161 89 851 88 1095 90 870 91 828 92 789 93 477 96 765 99 925 91 1234 94 1208 95 1134 96 1242 98 1186 100 618 101 373
3297 -4.7495056689188306 1.5453702893905652 3.5628823548726349 53 57 58 1.4640083128573644 82 1466 84 1442 85 1352 86 1280 79 1468 75 1403 99 950 93 1275 97 1182 101 992 68 1266 102 1056
3298 -5.646986072874447 1.1377782373445091 3.2386273749732348 72 75 71 1.0356637221194691 86 1521 88 1539 85 1595 91 1453 99 1261 84 1564 89 1510 85 1553 83 1662 82 1654 87 1568 88 1499 90 1522 81 1634 80 1688 79 1299 91 1414 92 1346 94 1374 78 1189 95 1276 97 1227 96 1302 98 1244 100 1068 101 1174 102 1145
3299 -5.3697383740462747 0.4905037386711974 3.7454433799555402 217 225 236 1.5524016397376521 97 607 99 624 100 537
3300 -4.3835610743365088 0.68152301763381917 1.8988560662394181 60 73 82 0.18426100971836024 97 1021 99 638
3301 -3.1809190680830981 1.0496809007110035 2.5719865300771638 44 52 55 0.18565803918779977 93 442 99 690
3302 -5.4973125418888644 -0.40994999327279713 5.8829980959386248 0 0 0 0.85298074360726694 97 1243 98 1210 99 1189 102 1075
3303 -3.1755713127179899 -0.64311271175185503 4.2224853450245003 153 161 176 1.8901241969158009 88 1122 100 2
3304 -2.7203112127083777 -1.4766753505935344 8.8746900862195517 0 0 0 0.96182104006619129 92 513 98 464
3306 -1.2828881871831117 -0.4398372855000427 5.3917017631406079 34 46 60 1.1244644992984514 85 115 100 41 101 427
3307 -1.4459731709357291 -0.36833788387928657 5.3718689287172916 22 35 44 0.38016772434991736 96 69 98 49 100 54
3308 -3.5120505593509979 -0.0036994307836097223 3.8941306529259299 110 115 120 0.19811172894835183 99 126 100 98 102 107
3309 -4.2881917786821422 -0.15486556455807249 5.0255502738045861 133 161 182 1.7065954019306957 85 1214 100 105 84 1285 101 470 102 122
3310 -1.8462057772357787 -0.30084609509053978 7.2362766048637139 33 44 62 1.5093822224273183 89 641 100 109
3311 -3.6689764557974276 0.0070850113889180371 4.0130543975768349 43 57 66 0.42858535666603242 98 114 100 113 101 109
3312 -0.45014396766852105 0.045671171093986447 5.7403665756892481 110 113 120 1.0038119552464382 83 286 100 123
3314 -4.8896684259387646 0.37358290467425825 3.8797021640265563 140 154 170 0.68954359950257038 94 292 100 214
3315 -1.09648497898743 0.48792336847089968 5.4748833688795608 145 147 152 1.2933421098721938 91 723 100 217 74 1624 88 1009 89 1014 72 1645 71 1630
3316 -4.7941713422582151 0.95512544713726721 3.4405284650261874 206 210 214 0.35147838718406493 97 361 99 377 100 327
3318 -3.3480970383827118 1.0695782533790892 2.4629542725242533 51 59 62 0.2669974492171463 99 400 101 333
3319 -5.5534723898391389 1.31281037605115 3.1868500848298176 45 48 53 1.7610867749344579 91 840 99 443 100 385
3320 -5.3825051342207555 1.4584353221967898 3.253174216058663 65 70 74 0.64587422819376072 92 500 97 445 100 398 101 390
3321 -2.548293093278541 -0.43222196205124608 4.7279069868175236 68 82 95 0.9422807873547171 88 895 100 425 101 424
3323 -1.9504428944349941 -1.5909770957688145 12.355014263410768 140 167 178 0.94652806515588783 88 1133 101 677
3324 -1.4388618804698983 -0.13587821315702334 5.2939370642421322 53 61 82 0.092270101617981826 93 580 100 448
3325 -2.7009438166650601 -0.1118744056353707 4.7565205985254853 134 150 157 0.31451122842528711 99 108 100 451 101 83 102 480
3326 -3.0706135074327721 0.21555216629905166 3.6305682856328652 0 0 0 0.17483428753106944 92 647 96 619
3327 -5.0782377251363515 -0.099463814556310121 4.5571810712622103 31 53 67 0.85876786157335805 98 558 99 146 100 469 101 729
3328 -2.8341919890773748 0.26828420030820677 4.3460076480866983 23 33 42 0.096933597494740731 97 802 100 504
3329 -4.0754905243679653 0.3880961205226347 3.7584042365357568 76 94 104 0.33529607723117577 98 217 100 513 102 534
3330 -1.7332342427687137 0.8271598644262006 4.7808657436480706 92 97 101 0.6256645018571293 98 652 99 653 100 553
3331 -0.96414996640023309 0.84127915641562112 5.5247015286051129 139 139 139 0.12193825869970908 98 878 100 556
3332 -2.9644643778917907 1.0926112199357114 3.7463065004876013 76 80 81 0.10157165618999374 95 733 100 590
3335 -4.6471321974357576 1.5425387376172244 3.5619309075668761 180 184 187 0.12090447291596693 89 562 97 714 100 644 101 393
3337 -1.6883398080128784 -0.57885296476606984 5.1941610165162642 109 122 134 0.46611879512034821 97 735 98 767 100 661
3339 -4.6653691329287037 0.04716386922535562 3.913510482511438 56 74 101 0.71626140052274301 98 817 100 722 101 503 102 893
3340 -5.3638764521998787 0.5657318141977512 2.8468525792832633 168 181 197 0.27984209762130591 99 869 100 761 98 857
3341 -4.8935723446835855 0.79318216454054769 3.2726249722949676 79 86 98 0.060247594832814513 94 996 100 785
3342 -2.9459239344972175 1.1785563595109834 3.7822926319672541 70 75 78 0.29621673534972248 95 957 100 802
3343 -5.6809306497967667 1.2726078921633381 3.9885753248074902 184 185 187 0.046214046928636912 98 717 100 820
3344 -2.5741528867286174 -1.0075025806287718 7.2539083609477153 37 59 73 1.3752986544295218 86 1418 100 834 87 1514
3345 -2.7122617323685794 -0.88725198148441842 6.4724597834116882 28 54 64 1.1036348689648197 98 762 100 837 101 654 102 672
3347 -1.6491821862434122 -0.34110859886021289 5.1632021549621223 90 103 109 0.46677699450014004 93 1039 94 1094 99 976 100 857 101 687 96 812
3348 -1.6514422579067998 -0.33504692812564435 5.1422671012988443 90 103 109 0.11352741813817713 93 1040 99 977 100 858
3349 -3.8390350023744877 -0.2081450075117024 4.2423213106004143 98 110 124 1.2917353191762562 96 1033 99 984 100 871
3350 -1.2978821899098638 -0.14893404216172451 5.15123666792298 44 56 72 0.37108579347569609 97 1102 100 873
3351 -0.31345531837413376 0.06853378053011662 6.8565257057065176 57 64 74 1.6304660566019318 98 1008 100 890 99 836 101 1021
3352 -5.82381523684084 0.66343235151933788 3.3796120916233381 126 134 138 1.6222094726478684 97 1027 99 1029 100 922
3353 -4.6556009754647505 0.88108933713534421 3.6643703511600916 160 163 168 0.23545829450599096 95 1207 100 931
3354 -1.087759216315298 1.1124129459251355 5.6877536185323283 82 84 83 0.8660238987755623 96 1222 100 932
3356 -4.5849833096281829 1.1204689921949402 3.5612641487126702 168 168 170 0.1715489749746619 97 884 98 914 100 950
3358 -5.4865012074551469 1.1296691323651262 3.3642662708195075 199 198 200 0.7610216876994067 98 924 99 918 100 956 101 828 97 894 102 827
3359 -3.7565711818256791 1.3299179065547768 4.1392152502127573 90 95 99 0.16202926839891671 90 1443 100 960
3360 -5.0286772831634972 1.4418719674095648 3.5103885290868737 78 83 89 0.68271347440165475 99 1171 100 968
3363 -3.0971662106909643 -2.2403628760905012 11.638438540488643 0 1 0 0.46987605949547728 92 1200 100 974
3364 -2.0304100263702658 -0.75410463158505336 4.7852067559207461 87 88 94 2.992161832702354 84 1647 100 976
3365 -4.3688918959028804 -0.65726422635094217 5.2715882694972773 94 146 168 1.2648888240185494 94 1079 100 981 101 1001
3366 -4.2212324011961897 0.067741998456232716 3.6524284790345298 124 143 160 1.8176424538279647 97 1195 100 1002 101 905
3368 -1.1418795722106563 0.64871832331620427 5.470628020910433 54 57 59 1.0306390411047994 98 1040 100 1031 101 938 94 1287 95 1068
3369 -4.4802816506609764 0.64101001336066699 4.1225095642239324 0 0 0 3.2447638107868606 92 1127 99 1024
3370 -4.7437928274851267 0.79055522775360121 3.4968571445158325 89 93 102 0.96096580075524562 93 1238 100 1040 94 1292
3371 -3.06424149145393 1.0576084028263932 1.1585098826991997 0 0 0 1.0569149639200179 96 1235 100 1055
3372 -3.5823409473718963 1.1751401508915915 2.1063415139905275 65 70 74 0.69283082286618458 99 1063 100 1067
3373 -4.3039468318483136 -0.9171417894720626 6.6674562008724401 98 138 173 0.28310918866005186 98 1114 99 1173 100 1078
3374 -3.716711261443967 0.026484120052259176 4.1526939531179723 16 33 43 0.52603706276235296 98 1135 99 1114 100 1089 101 1111 102 1126
3375 -6.3463963038717122 0.69488588428285791 3.951879093964104 76 85 92 0.6481253976070408 98 1230 99 1216 100 1109 101 1129 102 1021
3376 -1.5006468479930801 1.1013008155202586 5.3675302251591672 0 2 1 0.5148564982529491 93 1379 100 1112
3378 -4.8667220853322801 1.6030971950160566 3.5725062299119137 61 65 65 1.7267055238345357 97 1234 100 1126 102 1117
3379 -5.0114447921067473 1.4715406663238568 3.5159382053367931 68 76 78 1.1656007305453362 85 1606 95 1285 102 1149
3380 -1.3308022432315008 -0.054656588630265394 5.3299128579642359 0 0 0 1.0334278264913785 94 1429 99 1274
3381 -5.0160655237681944 -0.042770631153962936 4.3242150741515033 81 99 109 1.401653717344151 98 1298 99 1275 100 1174 97 1281 101 1203 102 1160
3382 -0.33710741026194729 0.33874861145392038 5.7860598792707725 64 68 69 1.5333473547128162 96 1392 98 1319 100 1192 98 1347 101 1207 102 1185
3383 -3.4789728791045667 -0.23009295488367884 4.0693225090864651 37 58 75 1.9715170583757964 95 1386 101 1231 102 1211
3384 -4.5024095891965334 0.040364653852819621 4.0281649513199973 70 91 118 0.76468004251384436 98 1358 99 1322 100 1223 101 1238 102 1213
3385 -5.4870635284212144 0.11010036617095191 3.8966383295008478 121 148 169 1.3203164651697159 98 1360 100 1225 101 1240
3386 -5.1079747008558574 1.0538107221662936 3.6290079314947263 67 76 83 0.73294982531822239 98 1380 99 1339 100 1237 101 1263 102 1227
3387 -3.9249507459280517 1.1559496722516898 3.9693736283009575 41 45 49 1.0040370782398194 82 1575 81 1722 100 806 89 1098 84 1178 83 1195 87 1153 90 855 99 706 91 1041 93 974 96 959 79 1123 72 940 102 624 62 1564
3388 -3.0692157680984584 -0.52186287502932416 6.0804973416465025 41 69 76 2.1307830564878492 87 682 95 523 100 438 90 628 95 1164 99 791 101 439 102 461
3389 -4.1147611144858125 0.20622388951283746 3.7282396152153825 98 104 115 2.1833516512534579 88 978 90 1007 100 496 93 626 78 291 76 247 77 815 67 887 66 987
3390 -4.0151549803947653 1.1918956732595614 3.899520140259396 96 101 105 0.74078679735885378 88 828 92 779 94 1037 97 890 99 913 100 608 91 446 93 764 98 702 99 711
3391 -4.4819299644122257 1.1546646084118586 3.6557674839651906 55 55 59 0.62977493711626908 82 1440 87 1156 100 609 94 1196 97 889 98 918 101 825 99 1054
3392 -5.7047834482289277 1.4582034075891028 3.4797615344529507 57 63 64 1.6018561021101554 91 1063 94 1056 100 643 97 915 98 951
3393 -3.1179659154352142 -0.7228109805770363 6.0171536066841069 96 111 118 1.4017073943039335 88 884 90 589 89 893 92 1207 93 1182 100 674 89 1153 97 1088
3395 -6.4236435739431474 0.5044895525347195 4.6541412077177826 142 159 179 0.80444954056000884 99 874 100 770 98 866
3397 -4.0047429377443446 0.070256567133935327 8.0211962108035291 86 99 109 0.64855289546302675 98 210 100 202
3398 -5.4731817575949684 0.4533996467555127 4.5855004699506727 163 162 165 1.1328858090688216 96 307 100 243
3399 -3.2576590649572044 -0.43227466567467016 2.8605309006321877 3 5 2 0.13385290084048523 98 746 100 646
3400 -3.730777646336739 -0.73053070358766981 5.7101255070436752 142 172 200 0.81616611532057737 99 1088 100 1075 98 965 101 1100
3401 -4.4688295406173006 -0.32625183368273097 5.930890138817956 82 115 137 0.33533336202207137 99 1108 100 1088 101 1108
3402 -3.590511286935318 0.015288405439907385 3.8039227516413305 69 78 81 0.52887580796046707 82 252 84 226 85 211 83 207 86 618 89 655 87 203 88 634 90 681 91 623 92 599 95 560 93 593 94 644 96 583 100 107 97 140 99 135 101 471 102 485
3407 -4.3446446265162137 1.3086139105979413 3.7246568886402405 176 177 174 1.6842885735630748 89 1320 84 1426 86 1265 87 1384 88 1099 89 1110 90 1328 81 1500 80 1549 91 1237 92 1185 93 990 94 1216 77 1475 79 1332 76 1284 75 1392 74 1378 95 971 98 1091 99 930 99 1069 100 818 89 522 90 880 93 773 94 495 97 416 101 842 73 1342 72 1192 68 1255 66 1541 78 962
3408 -3.6015963465359402 0.10448573271546242 3.7730374075836175 88 98 104 0.47612429860076011 85 706 83 759 86 633 100 129 97 169 99 555
3410 -2.5200103347440499 -0.9462187284992789 6.1336265269588832 36 51 68 0.0031335752261571646 91 10 101 7
3411 -1.3908957779802331 -0.41893922478163231 5.499155277838577 135 146 155 0.15412867259200275 98 42 101 48
3413 -3.9845910134259581 0.071712407171761139 3.8732838447216116 116 129 138 0.40856629271066086 97 163 98 145 101 130
3414 -4.0363342507074771 0.33655291468352022 3.7076811338907101 51 65 78 0.6078737279493388 95 626 96 244 101 187 97 216
3415 -0.92586238320281955 0.50923917266044894 5.5547264618916499 132 133 138 0.65305958986381751 97 238 101 218 102 238
3416 -5.624960674371172 0.61883475509035868 3.3542791296581997 138 141 156 0.57097185990830746 99 300 101 260 102 279
3417 -4.6501713924590486 0.78214910080665667 2.456086677353098 29 36 46 2.2664602894993573 99 664 101 273
3418 -6.4684861931767381 0.83322242000108282 4.0948084893454286 64 77 83 0.51945573789280752 98 674 101 321
3419 -6.457164597853887 0.83243605319671521 4.0697754512002788 64 77 83 0.65425433523631404 98 675 100 581 101 322
3420 -2.1168836358693137 1.0917168682343423 6.9215332808313423 0 0 0 0.22712439895647851 87 484 99 360
3424 -5.6812978315040077 0.39334986119995885 4.9804105668429761 0 0 0 2.3880499499711445 89 723 96 306 90 754
3425 -2.0006577248944954 0.90155192913133897 4.012059724162472 0 0 0 1.6635150115973936 91 391 98 309
3426 -3.0539783748663876 0.92557924832071081 0.64546431007081351 90 95 99 1.8523069439226458 99 363 101 565
3427 -5.5258566240472797 1.0883043341387155 3.2922116049570764 135 140 143 0.6734523422884835 84 890 101 604 85 485 102 629
3428 -4.3747376343104794 1.2644015710493126 3.8294593082288522 241 241 243 0.31583532484698779 98 931 101 614
3429 -5.2054354349943264 1.3321301623676842 3.0854924247625104 69 77 80 0.037888493013431938 96 501 101 629
3430 -4.6712086464114897 1.4958037092884888 3.652173158102459 174 179 182 0.12224001437484525 99 946 101 635
3431 -1.0144468973982308 1.1428095308321087 5.4750075991228373 0 0 0 0.05187723061860279 95 941 98 894
3433 -2.4995015474361808 -1.1930735742228393 7.0684079605641674 78 87 116 0.24106911209837661 97 719 101 645
3434 -2.6741587872594668 -1.0270729962199028 6.9194244730209675 83 99 120 0.44506138600840356 98 759 101 649 99 760
3435 -2.7301209756202645 -0.93125332114958725 7.1976820110791984 130 162 159 0.67335046475420068 99 772 101 660 100 980
3436 -2.7250739721700969 -0.93375774912144793 7.1982944695582498 130 162 159 0.36612574635937589 99 773 101 661
3437 -1.894361867111354 -0.77210417901573936 6.8045301348594593 41 61 70 0.28309153431367723 99 775 101 664 98 487
3438 -1.6225387039546928 -0.44538396653867707 5.31528907664035 105 115 125 1.0281051937744929 99 782 100 679 101 668
3439 -1.6225387039546928 -0.44538396653867707 5.31528907664035 105 115 125 1.0281051937744929 99 783 100 680 101 669
3441 -2.7877915991135671 -0.74652215040215153 7.4144310239317237 36 66 74 0.23879551914545316 98 509 101 694
3442 -5.193767482154124 0.44137154724157679 3.552221275349563 114 134 158 1.7292851668420095 98 844 100 527 101 758
3443 -5.2601825841476986 0.65130427771094346 3.2036798969399909 251 254 253 0.3273153806774467 98 876 101 778 99 648
3444 -1.3090088235874691 1.1355036505714973 5.4155631611777055 35 38 43 0.78853639621443983 95 940 101 807
3445 -3.412568807193999 1.2772563276240891 4.0760837071763767 71 74 80 0.04021365865941233 86 810 101 830
3446 -3.6751657677323131 1.3406270574409864 4.4004601127840166 89 95 98 0.43553710795246459 85 1335 101 835
3447 -4.6158296142295505 1.6371083070110446 3.5734144165378656 73 75 71 0.5766941740874264 85 1353 101 856
3448 -2.9092154643613752 -0.84584424871727371 6.363383219423322 26 50 54 0.74714703708748309 98 962 101 863
3449 -1.6337420297892962 -0.54782043898446819 5.3530105708618176 119 133 146 0.69315119351158871 99 1090 100 668 101 866
3450 -1.6337420297892962 -0.54782043898446819 5.3530105708618176 119 133 146 0.69315119351158871 99 1091 100 669 101 867
3451 -3.5672667376404603 -0.034065496218191778 3.9022977081530494 178 192 201 0.56229220503281041 100 879 101 895 102 888
3452 -1.2515592333315071 0.67940216260998454 5.4408141502613621 75 79 80 0.98188243297430744 98 1042 99 868 100 759 101 939 102 769
3453 -5.6401944505443193 0.65551471696253294 3.4461276633169824 132 137 139 0.34264280030684757 97 1025 98 1048 101 946
3454 -2.931896325768629 1.2124506813251732 4.5048776630350673 74 78 81 0.28246887884804828 93 1258 101 972
3455 -2.9615839407827411 -0.57513996759902786 4.1180552343625747 67 82 101 0.49163241386317358 84 1648 101 994
3458 -4.5690759948876316 1.6399841383737339 3.7069470711937078 0 0 0 0.096305761041354521 81 1661 89 1449
3460 -3.6834971825098899 -0.24753671417815515 4.3497632777451525 41 57 70 0.76706388764727651 100 1084 101 1106 102 1072
3461 -3.9842613031217153 0.41897916964117388 3.9066841251303401 50 63 72 1.2933290102579504 96 1332 99 1247 101 1115
3462 -4.3994184372633658 0.76978947508841722 3.5575129201841107 85 91 96 1.5740674984901175 97 1261 99 1212 101 1126 98 1228
3463 -6.2080706505281551 0.78468121067773089 3.7424627058068451 172 186 197 0.46730601520973669 99 1218 100 1110 101 1132 102 1105
3464 -4.7353770244717994 1.4314357547444516 3.6220930175278716 34 39 42 0.28302479109280387 98 1253 99 1231 101 1147
3465 -4.7843974074364581 1.4754653658524641 3.5837058700397177 231 235 238 0.68848022774785811 97 1275 98 1294 101 1149 102 1115
3466 -4.9304267961751123 1.5486959420504089 3.501970306802793 0 0 0 0.14305115475996508 88 1547 100 1168
3467 -2.6774016945815555 -0.41141486876003663 4.7866243599609613 104 121 129 0.5879748501250569 96 1319 97 1188 101 1157
3468 -2.6774016945815555 -0.41141486876003663 4.7866243599609613 104 121 129 0.5879748501250569 96 1320 97 1189 101 1158
3469 -2.5942800388656049 -0.063049031146109977 5.1307110395068225 32 49 56 0.86743133919284776 99 1242 100 1139 101 1162 102 1125
3470 -4.2632898143330147 0.50801076211312568 3.7053400319247736 64 78 91 2.1253711934228288 100 1150 101 1165 102 1161
3471 -6.1225855614868623 0.89994623175081534 3.8779497322222145 101 115 124 1.5832000794706158 99 1259 100 1161 101 1172 98 1285 95 1316
3472 -1.1470327484282925 0.94681676053881914 5.5964856451762781 0 0 0 0.16332450865907674 75 1708 77 1803
3473 -5.1623377663944714 -0.33524330555244319 5.3638640388550698 146 191 196 1.062829131642075 98 1342 99 1308 101 1200 102 1200
