# 3D point list with one line of data per point:
#   POINT3D_ID, X, Y, Z, R, G, B, ERROR, TRACK[] as (IMAGE_ID, POINT2D_IDX)
# Number of points: 360, mean track length: 5.5915461458178024
15316 -38.228295411074939 10.497358667045386 -42.026886013652728 211 212 198 0.43761337690158869 19 2199 6 3019
15317 -7.5662396703752135 2.1124361387509656 -8.0046523848471018 159 162 156 1.4181854043301245 12 2048 3 1009 2 1017 1 925
15318 -1.2405837761432637 0.38426618427393833 -0.47657470029107579 72 83 73 1.1821396975296372 14 4075 6 3075 13 4251
15319 -1.9375009874866285 0.4617621366863256 -0.71499042500016885 153 174 195 2.6459282323720128 6 3082 4 924 3 1111 1 1023
15320 -1.4807704883782296 0.21988407722526479 0.67027075410821924 118 136 153 0.50441252284244176 8 4210 6 3130 3 3805 4 3449 2 3741
15321 -2.789727762272177 0.41646574228775413 0.23345674577395431 50 54 55 0.55748518256014157 10 2499 6 3133 11 2244
15322 -11.366924365969487 3.424339595717155 -11.013595244684549 136 136 126 0.36875180859911671 7 3313 34 1807 6 3134 32 1845 33 1804 5 3522 4 3445 3 1260 2 1243 1 3551
15324 -2.8937056324925607 0.53187053151131614 0.31480940777446914 23 42 46 0.62098366329983579 10 2534 6 3167 11 2271 5 1145 8 876 4 1064 3 1297 2 1285 1 1213
15326 -0.68064527035967015 0.49189509203727344 0.050222904615163141 166 166 158 1.0027205140492996 8 3024 6 3178 5 4650 10 2547 2 1301
15327 -0.66886945525966834 0.67443104847566993 0.11115938201229443 101 100 114 0.58374571926646279 11 3430 6 3191 2 1340
15328 -3.4531378166389546 1.0402259711282409 0.049171977474926007 64 70 68 1.1481621515671059 7 1073 11 2313 6 3197 5 1196 4 1118 2 1358 1 1280
15329 -1.689560272145235 0.92852193042947662 0.92736266529965061 97 100 105 0.22593673300089478 9 2628 10 2619 6 3245 4 3561
15330 -0.1774703470494029 1.1760127624933701 0.42288984673276042 93 92 86 0.40855511426010921 8 4319 6 3275 5 4733 4 3606 3 1473 1 1387
15331 -0.36595062120667238 1.1126977825220266 0.74580223861745909 121 117 109 0.66405104081834343 7 4602 8 4330 9 3778 6 3284 5 4745 4 4773 3 4036 2 5088 1 3740
15332 -3.8880813032985899 1.1134242928300517 1.9123482936136338 135 135 122 0.40820829429681149 8 4326 6 3288 5 4752 4 3623
15333 -3.9111917493284221 1.1283255841057827 1.8852749571853809 135 135 122 0.17741332808969201 8 4325 6 3289 5 4751
15334 -3.202250697862429 1.0130600938121226 2.2836445591679841 99 99 89 0.27662218972637032 7 3513 6 3327 4 3661 3 4090 2 1593 1 1527
15335 -3.165848078953243 1.0003044920092132 2.3344078349654791 124 124 114 0.27756248410544349 7 3520 6 3333 4 3668 5 3716 3 1616 2 1605 1 1538
15336 -0.19811111608716586 0.98455605047140826 1.4936027720737297 84 83 78 0.43610959756999085 10 867 6 3341 4 1322
15337 -1.8232024985026922 0.95931472789374073 2.1861634678771904 110 110 98 0.48571715168757168 7 3571 6 3391 5 1553 4 1419 3 1725
15338 -1.1493097516854676 0.93007689242016522 2.0878450911512658 116 116 104 0.34632029716242219 7 3589 6 3402 5 3773 4 1457 3 1750 2 1756 1 1639
15339 -0.65192605185936592 0.92313488310402003 1.9542236694450963 72 71 65 0.92396058226905964 7 1434 8 3260 9 967 6 3406 10 953 5 3777 4 4841
15341 -2.6952556313572704 0.91279533648648492 2.6635957023659294 100 102 91 0.245855921808392 7 3612 6 3424 5 3802
15342 -1.0895801298728671 0.90834563944551394 2.2347138573201044 99 99 93 0.51038941650226544 9 3880 6 3447 5 4831 4 4861 2 5772 1 5472
15343 -3.1422118954381246 0.90154109591858489 2.9055283875412781 98 98 88 0.45436661599612793 7 3651 6 3460 5 3852 4 3789 3 4227 2 1927
15344 -1.1312358778580209 0.91505824079051001 2.3067070725951999 90 89 85 0.25844283716878136 7 3687 6 3480 5 1801
15345 -0.78493073006346792 0.8670318468887761 2.3435805576517081 142 143 135 0.47096697136335325 7 3718 8 4464 6 3510 5 1847 2 1987
15346 -2.0918290611132555 0.8780918100898939 2.7382029327507049 98 98 89 0.13768558092779623 9 3929 6 3515 5 3907 2 2027 3 4280 1 3924
15347 -2.5026730725829327 0.87883895056540851 2.8695087166022879 87 87 75 0.18347002712064953 7 4732 9 2882 6 3522 5 3913 3 4286 2 4138 1 1872
15348 -0.81829872070763243 0.86253107054719758 2.4039775311990543 93 90 85 0.53630401830572394 7 3735 6 3527 2 4137 3 4285 1 3926
15349 -1.2652521064636697 0.88064188941659194 2.5191801846984876 86 85 80 0.2106010567311408 7 3746 6 3532 5 1934 3 2077 4 1779 2 2063 1 1884
15350 -1.4675271188238226 0.86522740107834895 2.6066521105923721 117 116 111 0.15726369252281905 7 3741 6 3533 5 3919
15351 -1.7837635769407005 0.86522181329301762 2.7083587016077177 128 128 118 0.28675838695220945 7 1758 8 3419 6 3537 5 3923 4 1787 3 2088 2 2073 1 1899
15353 -2.7154305729294221 0.8636290370761398 3.0263668252513822 80 80 73 0.24310020248511 7 3751 6 3560 5 2012 4 1841 2 2121 1 1948
15354 -1.2901547349418976 0.87056947526531436 2.589614918724664 119 118 113 0.15949162877360668 9 3974 6 3563 5 4897 4 4918
15355 -3.1181319925743183 0.85168493070315332 3.1970146765082763 167 168 154 0.14944007956176364 7 1848 6 3582 5 2060 4 1895 3 2223 2 2164 1 2004
15356 -2.7135877207305943 0.84941755803951868 3.0813850537353087 84 84 74 0.32032190085946138 7 3782 8 3447 6 3584 5 3965 4 3909 2 4191
15357 -1.4150856476812328 0.84479735617044938 2.716034196443839 92 91 86 0.35118884611482937 7 4778 6 3604 3 2214 2 2156
15358 -1.1529341179130446 0.84304515288304194 2.6673630141397728 186 186 174 0.12753292565726601 7 4792 6 3631 5 4007 4 3938 3 2260 2 2191 1 2023
15359 -1.2333282756028154 0.85480432796672168 2.6729832509060847 122 122 116 0.25472520658192954 7 1970 6 3632 5 4008 4 3945
15360 -1.0282734957530435 0.83601355175979253 2.6525828500116568 124 123 118 0.15450263084834046 7 3846 6 3638 4 3948 3 2286 5 2136 2 2204 1 2038
15361 -2.9320532625073437 0.83177710944977434 3.2469071238321465 133 135 124 0.55694491211789077 7 1968 6 3642 5 4031 4 2005 3 2336
15362 -2.0753048358238328 0.83127646680015332 3.0021392260887478 92 91 86 0.2041600814244037 7 3862 6 3653 5 4041 4 3977 3 4373 2 4229 1 4003
15363 -2.9328984393481701 0.8217974879692318 3.3147259945566714 129 129 119 0.38938651305508321 7 3895 6 3675 5 2253 4 2097 3 2412
15364 -2.9248525902131903 0.81593952991438246 3.3405048161518667 86 86 76 0.30523246891193256 7 4814 6 3691 5 4075 4 4969 3 2438 2 2400 1 2212
15365 -2.8139610430275104 0.81471622291651369 3.3203317473623866 168 168 156 0.36108849951950822 7 3919 8 3592 6 3695 5 4084 4 4030 3 2448 2 4288 1 4045
15366 -1.081864854197927 0.82062044545467527 2.7917472453955883 77 76 71 0.22256093323291751 7 3938 6 3705 5 4085 4 4023 3 2416 2 2366 1 2183
15367 -2.3969890086535521 0.81414709603567337 3.206031425282398 144 144 134 0.25781496040999202 7 3932 6 3708 5 4092 1 2221
15370 -0.46917480902321401 0.81224171578582915 2.6582937836754708 93 92 87 0.55369383293055696 7 3973 6 3743 5 4112 3 4437 1 4047
15371 -1.4201184648543423 0.80302616061029486 2.9830648790005276 83 82 77 0.26224994629170789 7 3996 6 3759 4 4069
15372 -1.092973150386465 0.79727244626726779 2.8953601026184703 68 67 62 0.21804303233280722 7 4851 6 3762 5 4133 4 4983 3 4463 2 4306 1 2282
15373 -0.27425297422780237 0.79326737875326347 2.6557520421076215 109 108 103 0.1123527459464857 7 4002 6 3763 2 2465 1 2267
15374 -1.4386407918582425 0.7835288891990464 3.0382931529131589 85 84 79 0.29342679286565387 7 4859 6 3778 5 2470 4 2291 3 2569
15375 -1.0889567331115959 0.79957397032636313 2.917684533926185 124 123 118 0.24227097368703532 7 4032 6 3795 5 2504 4 2315 3 2580 2 2552
15376 -1.7292565893944443 0.80007715659732448 3.1082205664353237 107 106 101 0.43527236218214399 7 4865 6 3797 5 4152 4 2317 2 2562
15377 -2.2121848167260092 0.79688612071603004 3.2694950224611277 119 118 113 0.31848227347946273 7 2357 6 3808 5 4161
15378 -0.28980244565535629 0.78439132178047333 2.7220512343783336 104 104 97 0.37749991536235256 7 4059 6 3831 5 4168 4 2341 2 4327 3 2592 1 4081
15379 -1.2068005220536691 0.79781025677752004 2.9776412038799762 77 76 71 0.37123616413007504 7 4874 6 3832 5 4963 4 4111 3 4509 2 5266 1 4094
15380 -2.6819751087432264 0.78935933365649702 3.4526234076996221 164 160 146 0.56584669087367345 7 4054 8 5104 6 3843 5 4972
15381 -1.3864713795776802 0.78272405230873987 3.0860074765355736 184 183 178 0.13319971854098189 7 4084 6 3848 5 4195 4 4144 3 2680 2 2637 1 2414
15382 -0.46962627417269615 0.82480340730747559 2.7413464028424435 127 126 121 0.63477006070163167 7 4102 6 3850 5 2608
15383 -2.6822733150794007 0.78877212317635548 3.4671945232133421 112 108 97 0.59692327896982156 7 4061 6 3856 5 4202 4 2433 3 4550 2 4390 1 2450
15384 -0.32218175220375567 0.78636662572998262 2.7581688217677098 127 126 121 0.30846175506996587 7 4095 6 3859 5 4191
15385 -2.1181727530152217 0.78101851747060103 3.3150780054939744 126 125 120 0.27777290968104823 7 4081 6 3863 5 4975
15386 -1.2940848280519937 0.78994460895808649 3.0548728828785792 83 83 75 0.29968529689830475 7 4098 8 4650 6 3864 5 4203 4 4151 3 2692 2 4381 1 4128
15387 -18.162168016387071 7.7644803783334879 -45.108907628689479 51 60 51 0.5182000719990606 17 3532 21 3253 6 4170
15390 -2.0827941242857748 4.9021334007943302 -24.800510332304452 93 98 100 0.52682194113642655 8 4161 16 4367 6 4249 7 3181 9 3623 15 4117 17 4549 10 4314 13 4233 14 4062 6 4883 8 4850 12 4462 18 5058 11 4410 5 4573
15394 -2.758351093049884 0.35959253280602099 0.49094361641016582 213 207 195 1.3664165554968721 8 4883 9 4691 6 4290 5 4622
15395 -10.679785567554154 3.25443748197155 -9.2434992248293248 94 89 76 0.3767961129078401 10 4358 6 4303 4 4662
15396 0.43340075649248067 1.7363966833065818 -3.2944725497475487 111 112 101 0.55104193493588571 11 3436 6 4320 5 4660 4 3514 2 3829 3 3898 1 3637
15398 -4.0512996561759103 1.4977753042068878 -0.34777416434459235 96 97 84 0.59324676061837511 8 4266 6 4332 7 3410 3 3923
15399 -3.2995374538019835 1.262869828819823 0.11589782665749358 24 27 33 0.058614751808771327 13 3543 6 4334 2 5012
15401 -3.360989822586073 1.2399039170312283 0.92802325199370606 203 197 186 0.28146664362482621 7 5195 8 4945 6 4365 4 4748 3 5187 2 5060 1 4807
15402 -1.6263235436226984 1.0610767389405613 0.9950869726550412 94 97 104 0.149981334129279 11 3487 6 4374 4 3591 3 5199 2 5067
15403 -2.4019055570446026 1.1340275178347856 1.338401504454247 121 114 104 0.42958235854329996 9 3773 6 4392 4 4775 3 5216
15405 -0.52242701486189802 0.96921713473350413 1.7105774964088394 96 93 83 0.34567578053655856 10 4475 6 4443 9 4435 3 5262
15406 -0.9748159868850601 0.92175614001118611 2.0484625703073798 82 83 75 0.39228322450832892 10 3880 6 4453 9 3841 5 3775 7 3588 4 3714 2 1748
15407 -1.9996698229886991 0.92830638359169781 2.4143476790229257 133 133 121 0.27912464087917366 7 4671 6 4458 5 4816
15408 -2.1985119986276187 0.93126066705075861 2.484154463712307 146 146 134 0.31878404980383301 7 3620 6 4460 5 3803
15409 -1.7907728020616767 0.92425849170175056 2.377884350197025 144 144 131 0.19941799831555868 7 5269 6 4462 4 5474 3 5293
15410 -1.4394410676989102 0.90444114162557254 2.3701003269109195 96 95 90 0.35138471668519999 7 3653 12 4205 6 4483 5 3845 4 3774 3 4212 2 4080 1 3868
15411 -2.1447452254851544 0.90409482304714484 2.5888401105931647 139 139 127 0.31688216281743764 7 4695 6 4486 5 4836 8 4425 4 4870 3 5308
15412 -1.0975343638440886 0.88522506108534271 2.3277452034239605 88 87 83 0.41867346078972661 8 4438 6 4489 5 4843
15414 -0.91756089519344386 0.86570726534286924 2.4257332754069805 92 91 86 0.35268999188146055 7 4749 6 4524 5 4877 4 3863 8 3420 9 2929 3 4282 2 4131 1 3927
15415 -0.95459269198477525 0.85843557338449927 2.482999753778953 86 85 80 0.249344851350422 7 3752 6 4532 5 4886 4 4907 3 4294 2 4153 1 3940
15416 -2.0554804162078364 0.87631016974895892 2.7997861847424397 84 83 78 0.34998113706166745 7 4761 6 4534 5 4894 4 4917 3 4309 2 4166 1 3955
15417 -3.1016834404390785 0.8777766542555292 3.1222394955281221 91 91 81 0.20027929319792956 7 4756 6 4539 5 3956
15418 -2.0970369399975457 0.85453363429752716 2.9370238299476052 126 125 120 0.33074380401129994 7 4788 6 4556 5 4906
15419 -1.7661714749871025 0.83946939934459286 2.8740127451287143 83 82 77 0.38398577044353527 7 4795 6 4559 5 4018 8 3531 3 5382 1 2061 4 3960
15420 -0.58718767344034239 0.83317037809257244 2.5382754852759217 94 93 88 0.28126635176485426 8 4545 6 4568 5 4913 4 4944 3 4359 2 5232 1 3991
15421 -2.1873437863281455 0.83617242162953731 3.0237817814872012 131 132 126 0.31271777669144818 7 5319 6 4569 5 4039 4 3973 3 4374 2 4230 1 4004
15422 -0.23613310340018803 0.81806719718911713 2.4641694578019528 119 118 113 0.24169260946444976 7 4805 6 4571 5 4034 4 3963 3 4358
15423 -2.9818035327309409 0.83662615992395717 3.2678067032176048 101 101 91 0.21806828766207029 7 4797 6 4573 5 4047 4 3986 3 4388 2 4241 1 2113
15424 -2.9136855689460757 0.81884399844538469 3.2868119461579162 98 98 88 0.62288863431986619 8 3524 6 4578 5 4053 7 3854 4 3988 3 4396 2 2311 1 4014
15425 -1.7004472881491695 0.82302314181123704 2.9423011003591193 83 82 77 0.34989624000643116 9 4016 6 4583 5 4925
15426 -0.32175846474696546 0.80693523397319411 2.583237020437585 98 97 92 0.27640415473096952 7 4834 6 4594 5 2307 4 4013 3 2400 2 2335
15427 -1.086471390971304 0.81039410610390561 2.8350032064708515 112 111 106 0.30159940411901831 7 4838 11 4293 6 4606 2 4282
15428 -1.1234874148228697 0.82254302051009165 2.8283035113051236 83 83 75 0.54916102226994579 7 4839 6 4608 5 4940 4 4977 3 5404 2 5253 1 4038
15429 -1.1424892167039282 0.81080882059840242 2.9030722878795161 83 83 74 0.73538908612686604 7 4003 8 4609 6 4620
15430 -1.1664207673223046 0.80437307146011727 2.9575541664554614 66 65 60 0.21001045707716073 7 4055 6 4636 5 4962 4 4119 3 4514 2 4351 1 4100
15431 -0.23990636570215471 0.78349026471968242 2.7109386931464257 167 167 157 0.29733830678187834 8 4642 6 4637 4 4100 3 4497
15432 -0.27247975224692533 0.77752949942291161 2.741683749959662 88 88 80 0.85135421212740914 7 5337 6 4640 5 4965 4 5002 3 4508 1 4085
15433 -0.17839217134009397 0.74527473309659253 2.7751531517931034 102 102 92 0.47116021382084255 7 4886 6 4646 5 4968
15434 -2.5165573918169279 0.7732445334351461 3.481598419138376 147 144 139 0.25043206323291756 7 4894 6 4669 2 4405 1 4155
15435 -2.6157509173512095 0.77428388637099888 3.5119701878796277 87 88 80 0.049206855107884279 7 4898 6 4670 5 4990
15436 -16.874637018908473 6.5879916416986095 -42.433160369139621 71 75 76 1.0343158037512226 7 5024 9 4631 19 3580 6 4813 15 4573 16 4775 21 4504 23 4109 18 3618 24 3947 27 3949 14 3978 26 3449 5 4481 4 3174 3 3535 2 3482 1 4534
15437 -10.309534523400149 2.0617800167311118 -11.985719203994925 79 85 71 0.2848769300813897 11 3926 6 4816 10 4664
15438 -10.309534523400149 2.0617800167311118 -11.985719203994925 79 85 71 0.2848769300813897 11 3925 6 4817 10 4663
15439 -10.342101282089219 2.2686614822772913 -12.451540581010352 41 49 39 0.56653131450972916 11 3933 6 4824 3 4918 8 4051 7 4339 9 3528 10 3554 5 3286 2 4774 1 4555
15441 -4.9165894251562881 0.48612908570313751 1.0553327273517803 0 0 0 0.79209824187505218 8 4896 27 3979 28 3981
15442 -3.1615285998745457 0.6133578381745185 0.039302454655748068 177 181 180 1.124561359725708 8 4900 12 4502 6 4936
15443 -9.3349538231118618 2.7404611628328013 -5.8340839158811129 151 147 138 0.78850459627524883 13 2235 14 3358 6 4942
15444 -6.4254250776001172 1.8985868495306604 -1.9873438641219399 167 163 151 0.7887933497984525 8 5276 9 4346 10 4745 6 4950 2 5625 3 5122 1 5335
15445 -1.6781943649693609 0.7351340164312874 0.93821394581167705 26 30 31 0.30703976293133406 12 4095 6 4959 16 4453
15446 -1.6034250408088841 0.74517613884638412 0.91541847998020287 59 62 67 0.80496983049832849 14 4544 6 4960 5 5273 4 5345 3 5771 2 6021 1 5340
15447 -0.58923674789376557 0.94632844669430038 0.1547547048446648 48 50 47 0.69693920755299132 9 4718 6 4964 8 5288
15448 -3.5728432669615291 1.2502982309476987 0.85000839092917257 232 228 217 0.54854023528802698 10 4773 6 4984 3 5177 4 4734 5 4708 2 5049 1 4802
15449 0.012467801365762159 1.292884877439227 -0.29505239950193723 133 129 119 0.48725183309423992 7 5196 8 4949 9 4386 6 4991 5 5308 4 5380 2 5663 1 5367
15450 -1.6408933938481136 1.0372830853568962 1.0658791723650822 0 0 0 1.6732485302502893 8 4958 15 4728
15451 -2.7102013943965795 1.1460367933850659 1.2960794588642426 200 193 185 0.19474985996930647 7 5214 6 5010 5 4735 4 4765 3 5213 2 5083 1 4839
15452 -0.063529598265694098 1.0881458304049751 0.71012567449535147 125 121 110 0.60841438199020026 8 4975 6 5014 5 4743 4 4771 3 5214 2 5086 1 4841
15453 -2.2811349125826461 1.0798755496791961 1.5370547425600025 184 174 165 0.17656351542020834 7 5226 6 5021 5 5348 4 5411 3 5833 2 5709 1 5406
15454 -2.0231680689526228 1.0454282838993796 1.6686463538458016 200 199 181 0.32536469347579117 7 5565 6 5028 3 5840 4 5425 2 5717 1 5412
15455 -1.9087039682189648 1.0705653138236839 1.5886005729681452 125 122 106 0.84071756671147491 8 4986 6 5029 5 5357 2 5716
15457 -0.96873148807226173 0.94354394332691682 1.8682984355783083 106 107 108 0.50787611594665094 7 4644 8 5362 10 4822 6 5045
15458 -0.49231373760138031 0.98822878764275346 1.6425876026386603 95 92 83 0.55345920973834861 9 4431 6 5047 4 5447 2 5137 1 5440
15459 -0.73926621510990465 0.92834406064495067 1.8929182581595121 0 0 0 0.61585316607016849 9 4438 16 5263
15461 -1.6115203487670526 0.86563243312717786 2.706891379925036 78 78 70 0.34855309825970021 9 4507 6 5092 5 5422 4 4921 3 4320 2 5217
15463 -1.0572074353054821 0.84745532476750551 2.6394999780000741 85 84 79 0.47079198658052562 9 4822 6 5098 5 4909 7 4796 4 4937 2 5230 1 4966
15464 -0.56261266995911885 0.83326913892264598 2.5547106143844354 96 95 90 0.65039123949523647 8 5081 9 4830 6 5105 4 5511 2 5239 1 4976
15465 -2.8148259067219579 0.80207313838118799 3.4043887369724359 106 102 93 0.26398403239454127 7 5326 6 5112 5 4950 4 4989 3 5411 2 5260 1 5002
15466 -1.2696326113137972 0.78813452085766134 3.0328301148713397 86 85 79 0.40961894791527104 7 5639 6 5121 5 5454 4 5531 3 5935 2 6110 1 5509
15467 -13.617631223005047 2.5166678613247688 -12.603934233751781 63 69 59 0.73774456887583084 13 4625 6 5237 5 5539 7 5036 8 4055 10 4254 3 5644 2 5492
15468 -0.65841922201173742 0.64076545129050699 0.086434561555917541 46 48 52 0.503163321856961 7 5522 8 5274 6 5303 5 5611 4 5948 3 6139 2 6002 1 5716
15469 0.62370770871550085 1.9170360672297944 -4.0005822867833514 111 111 101 0.60633604381863337 7 5530 10 4982 6 5308 8 4252 5 5267 4 5342 3 5767 1 5338
15470 -3.7744581556783108 1.2462588678488005 -0.19029401714820909 156 157 148 0.55653306042102491 9 4947 6 5315 5 5620 4 5733 3 6151 2 6018 1 5729
15471 -3.9228435427222208 1.4057656320519241 0.056146760255335784 146 143 131 0.21683846904198115 12 4538 6 5319 5 5625 4 5350 3 5780 2 5645 1 5351
15473 -3.6250459190802133 1.1183592219996819 1.7415301456605874 111 111 98 0.371196267976587 7 5220 6 5346 3 6184 4 5759 2 5705 1 5397
15474 -2.3669958685112626 1.0747834736186073 1.5942766141794695 120 113 103 0.11333025473517584 7 5788 6 5352 2 6060
15475 -0.34777860810464217 1.0453510179484009 1.0517681375986367 91 91 83 0.84318797789504329 7 5562 8 4982 6 5354 3 6191 1 5404
15476 -1.1179175807801309 0.91957416566707029 2.1032509095227225 98 99 85 0.57175133433227809 8 5014 6 5389 9 4444 5 5692 7 5809 4 5464 3 5880 2 6078 1 5462
15477 -0.92361651235541875 0.80374938869606538 2.5085044695039787 138 137 129 1.1312643860136844 7 5611 6 5405 1 5478
15478 -0.99434198718249278 0.85485175406592517 2.5979821271108299 83 82 77 0.78620969977770339 7 5624 12 4887 6 5422 5 5723 4 5999 2 6282
15479 -1.2424939675822253 0.805036358731827 2.9261731662410781 98 98 88 0.56117507378744003 7 5633 6 5432 4 5520
15480 -2.6480128122348607 0.78174894633589764 3.431490873558583 169 165 155 0.51022969076922631 7 5634 6 5435 5 5731 4 5833 3 6252
15481 -10.574539904852655 3.0519528034772847 -8.0466496259870315 209 193 168 0.30793971846921808 7 5736 9 5100 10 4964 6 5538 5 5832 4 5940 3 6375 2 6222 1 5953
15482 -3.4968311457298609 1.328182962816624 0.020346876707716358 25 34 33 0.12575654320622623 8 5509 6 5560 2 6244
15483 -3.0466824834852053 1.2164728952282216 0.85517222359526146 131 131 126 0.34276664794429229 7 5774 8 5655 6 5570 5 5636
15484 -2.9768940604623304 1.1703899654545302 1.2763423614194274 123 120 108 0.71403300334868114 7 5781 6 5576 5 5876 4 5973 3 6411 8 5659 2 6261 1 5991
15485 -0.28011962631771509 1.0324393180111595 1.0999921784979898 95 92 81 0.54943056151448111 7 5932 8 5666 6 5720 5 6024 4 6096 3 6536 2 6392 1 6116
15486 -0.45377534551409482 0.83726441354578529 2.4451130003493442 95 94 89 0.69734068151951123 10 5244 6 5731 5 6042 4 6117 3 6558 2 6413 1 6141
15487 -1.1649364558580964 0.82823438290033857 2.7379965105979571 198 198 188 0.17568570357867183 9 5222 6 5735 5 6048 4 6120 3 6562 2 6415 1 6145
15488 -1.1649364558580964 0.82823438290033857 2.7379965105979571 198 198 188 0.17568570357867183 9 5223 6 5736 5 6049 4 6121 3 6563 2 6416 1 6146
15489 -0.24046586507312515 0.79833133480262186 2.6156529955808638 101 100 95 0.34227623951110769 7 5952 6 5740 3 6450
15490 -0.607859260204204 -0.47152606038381084 3.6572081805352097 173 175 162 0.52922753587812044 7 5996 6 5782
15491 -0.24692785713187318 0.7404864498022462 2.6893770821411933 110 110 102 1.0755685755319606 7 6051 6 5853 5 6166 4 6192
15492 -2.7566681790886256 0.80667115044180515 3.3778730203397829 198 199 185 0.45791655374222995 7 6052 6 5854 5 6125 4 6194 3 6570 2 6422 1 6154
15493 -2.7576333599974214 0.80672668342291365 3.3777827433321232 198 199 185 0.3418640267061413 7 6053 6 5855 3 6571 2 6423 1 6155
15494 0.35804061121491387 1.3499396765536598 -0.56328840302737426 106 102 93 1.6708338892376198 7 6087 8 5846 9 5322 6 5896 5 6213 4 6284 3 6743 2 6593 1 6316
15495 -1.4690861148199768 0.3838164378733776 -1.1259773788897527 45 55 55 2.3663065843770763 13 5318 3 6710 2 6562
15496 0.12887257203495694 1.1909942113481475 -0.60268068774975303 149 145 136 1.103742456100167 7 6103 12 5178 6 5916 5 6222 5 6234 3 6757 2 6609 3 6765
15497 -0.8960821461753522 0.83300836721170124 -0.22654306554264497 44 50 58 2.1965749233712462 7 6117 11 5059 12 5197 6 5928 5 6246 3 6776 2 6627 1 6344
15498 -3.498573293480685 1.2676628893699549 0.039994216499654026 5 7 9 1.7147288497387783 14 3401 6 4330 15 4708 12 4531
15499 -0.99184180823482371 0.87119424307409765 2.3342291971751377 95 94 84 1.1466522915723252 21 4987 19 5470 18 5468 16 5275 15 4827 8 4443 10 3930 7 4716 6 4498 13 2632 11 2657 9 2863 5 4849 4 4875 3 4229 2 4094 1 3881
15500 -0.66694115359049655 0.91752715195537338 1.9601778739645945 169 168 158 0.34140105196331016 8 1233 7 1424 6 1229 21 2884 19 3006 16 2656 15 2529 13 887 12 799 17 2798 14 752 11 934 10 945 9 957 5 1594 4 1446 3 1745
15501 -2.773280609469833 1.2217583814130042 0.89965707808830253 40 42 46 1.0798233679288576 15 3488 13 3567 9 3755 6 3269 16 465 14 488 7 3459 8 3120 5 1254 4 3588 1 1367
15502 -0.7416528001397743 0.8934572583290894 2.1699859384849467 88 83 72 0.28868754351117387 8 1376 7 1578 6 1345 15 1029 14 901 13 1032 12 942 11 1053 10 1069 4 1584
15503 -11.735703856489261 3.2388369469801854 -10.156311405739251 54 56 50 0.44134460541230247 8 2960 13 2178 7 3303 6 3126 17 2201 18 2369 14 2003 20 305 5 3514 4 3440 3 3806 2 3748 1 3544
15504 -1.4198453461567941 0.37781512019912 0.91570264177720995 51 47 63 0.74368684877894886 17 3731 12 3384 6 3184 21 3456 20 3497
15505 -3.4114732888025179 1.0624504322759485 0.026875828858373266 26 33 33 0.5104507223581215 8 4250 13 2282 7 4531 6 3199 15 436 10 2577 5 3587 4 4687 3 3891 2 3824 1 4758
15506 -0.72014988421999737 0.93281926301634066 1.7718555464642594 100 101 96 0.25464923435031711 10 4462 6 4430 7 4636 8 5002 4 4811 3 5256 2 5129 1 4883
15507 -21.874443736245084 7.4220256226004171 -37.413811362514501 38 44 46 1.3747179303048722 24 3990 25 3903 14 4020 6 4848 23 4595 7 5462 28 3592
15508 -0.60686109657694776 0.89760373707467356 2.0476472432876376 116 115 110 0.17687774199879658 7 1498 6 1275 5 1657 4 1513 3 1800 2 1799 1 1672
15509 -17.482689845029743 8.1168894184639999 -48.157539718179791 68 81 72 0.8076797751153304 13 4629 16 4786 18 5021 6 4825 8 4803 11 2014 17 4986 19 4989 20 4588
15510 -10.031989844949058 3.5696237252071041 -12.05292315096038 64 54 29 0.3881103125153717 7 5141 10 4350 6 4921 11 3375 5 5239 4 5305 3 5736 2 5592 1 5303
15513 -11.380818293657345 3.5225266576979064 -11.555380503229676 134 130 118 0.37539702121799107 7 970 8 837 11 609 6 871 5 1098 10 599 13 478
15515 -0.56992738263075582 -0.32099450815089448 2.5633159274913329 65 67 55 0.49731774031482434 12 4468 6 4246
15516 -1.4229200734244531 -0.27516897211749469 2.6504191074377377 152 166 192 1.8145702440959852 12 3301 6 4255
15517 -2.9904188987350659 0.41614993463542904 2.6477786445947675 137 137 125 0.97578238349545976 7 5540 6 4970
15520 -18.492112002467337 8.1113445210083004 -40.087974421507809 49 59 68 0.67662866455029402 17 2074 18 3720 5 880 19 3694 20 3359 24 3314
15521 -0.57991296006454551 0.84447589832560443 -3.4135036152448692 65 67 61 2.0660170087112095 19 2300 5 966
15523 -12.563687954904108 2.7748070768994166 -9.2011221211925491 94 99 82 0.24919638426665566 9 536 10 503 5 982
15524 -40.40625192412341 11.721212074694794 -44.555543564068692 93 105 80 0.61515916255748049 18 236 5 1006
15525 -30.646500561635943 9.9005207959056509 -38.192516980962907 147 147 139 1.8219257956412742 34 672 4 918 5 1019
15528 -12.43997491663993 3.2547402716254936 -8.9373789416189258 118 111 93 0.24577212145322189 6 891 7 3333 9 686 5 1121 4 1045
15529 -11.670019786609636 3.4146328198567515 -9.9107307962139366 95 92 85 0.27727859441698161 9 687 5 1123 2 1268 3 3837 4 3471 1 1197
15530 -12.126126126414848 2.9337337288016601 -7.0021019890828438 196 171 139 0.56250764896045857 11 2261 5 1140 4 1058 3 1295 1 1211
15533 -2.9029858117057703 0.57993018081476044 0.25217887718428472 50 63 70 0.55962067729776965 12 3358 5 1149 4 1072 3 1307 2 1293 1 1220
15534 -3.2589660184342706 0.74355898382807839 0.040760900542643128 44 54 64 0.8320247878170669 7 1033 5 1164 6 920 1 1231
15535 -1.2676948660317697 -0.38174873732314041 3.8696959794022496 34 44 54 0.96315118342300576 13 565 5 1174
15536 -1.7047037712037802 0.77979820739731698 0.85220182149226675 36 40 41 0.54889549578003227 11 2329 5 1213
15537 -3.3098024002100783 1.2077165064828692 0.12311280872213161 30 34 37 0.34414271858814777 7 1103 5 1215 2 1383 1 1312
15538 -3.2302222047115894 1.2112408356213675 0.13573814776214982 36 40 41 0.18815027401533249 6 964 7 1105 5 1220 4 1138 3 1393 2 1386 1 1315
15539 -4.0960091948078725 1.5290327726275008 -0.50259512484266444 156 149 139 0.29751181146599426 7 1108 5 1224 4 1144 3 1397 8 921
15540 -0.1461553760191158 1.1371306330781032 0.53279310812618974 111 112 102 0.40465818402111314 6 1008 7 3472 5 1263 4 1197 3 1477 2 1443 1 1393
15541 -2.6820016467753409 1.1493111300788525 1.3808731059639152 140 137 125 0.22260551377165036 7 1157 5 1267 3 1500 4 1208 2 1456 1 1420
15542 -2.3665767459871256 1.1015617250766221 1.4176234290689664 124 117 106 0.29779927885454688 8 969 5 1270 3 1501
15543 -0.37310459948656427 1.0827144231425123 0.94856182111023013 83 83 75 0.32525170154804905 7 1177 5 1284 3 1515 4 1224 2 1478
15544 -1.8499118059450135 1.0045318081393588 1.834720843761471 138 133 121 0.19675075035437917 7 3505 5 1364 3 1573 2 1556 1 1507
15545 -0.21864214287077097 0.99218137031634479 1.430731292852498 102 102 94 0.20730766916218249 7 1255 9 893 11 867 5 1396
15546 -1.8488714591741373 1.0130202468475811 1.8857619193639954 150 148 136 0.06095797441909117 7 1244 5 1401 4 1311
15547 -1.6867617342232868 0.96906442445312135 2.0081259707905077 139 135 124 0.22782942754918062 7 1279 5 1443 4 3678 3 1646
15548 -0.61817980627405256 0.93958928859720658 1.8086944627802968 179 177 165 0.19541544607737527 6 3374 7 1343 5 1491
15549 -1.6447110896904387 0.94494982329202437 2.1092520152642247 109 109 95 0.46322784075230072 6 3371 7 1329 5 1496 4 3692 2 1671 1 3804
15550 -2.8591417085793629 0.95428789210556952 2.4900001458378958 154 153 148 0.1440989630540733 6 1169 5 1534 4 1403 3 1711 1 3811
15551 -3.5274034557081602 0.95986807689476283 2.6833870394365311 91 91 81 0.39531067300143896 6 1165 5 1535 4 1405 3 1720 1 1626
15552 -0.69130608375267877 0.91811228917810872 1.9519153899945205 198 195 186 0.045405280917982162 7 1412 5 1570 3 1733 2 1731
15553 -2.2322657240023944 0.94934662017985205 2.4018920224192861 115 115 103 0.35281351665326749 6 1246 5 1628 4 1498 3 1788 2 1792 1 1667
15554 -1.9546033203811446 0.91607533788412965 2.4063294355061937 111 111 99 0.44005845991449111 7 1464 5 1641 4 1511 2 1801 1 1673
15555 -1.9575528828508446 0.92400683890942581 2.3914368911945156 111 111 99 0.63055682982611316 6 1269 7 1465 5 1642 4 1512 2 1802 1 1674
15556 -1.9476964753681028 0.91902014306761037 2.4255088093429422 143 143 131 0.18575617511657752 7 1489 5 1668 4 1521 3 1828
15557 -0.24415238347803478 0.8730231917382415 2.0192671587251736 112 111 106 0.30837058845740439 6 1298 7 1533 5 1685 4 1537
15558 -0.26926172349388666 0.87910020023651314 2.035684984055627 91 90 85 0.15121198726102342 6 1312 7 3648 5 1698 4 1551 3 1848 2 1832 1 1706
15559 -1.430665530701787 0.90372116470402464 2.3437709029937777 94 94 89 0.2335847068129743 10 1031 5 1701 4 3760 3 1873 2 1852 1 1725
15560 -3.4911107094381468 0.91746208003626206 2.93894652045477 148 149 139 0.28361315325959846 6 1306 5 1711 4 1589 3 1901
15561 -1.601360624501069 0.90891428711703082 2.408833012510748 137 137 126 0.24422557029804012 6 1347 7 1572 5 1743 4 1599 3 1899 2 1889 1 1756
15562 -2.0507664103000778 0.91473740485182831 2.5467807018337298 132 133 120 0.18604055865302679 6 1355 5 1756 4 1615
15563 -3.3570639183261726 0.90861348938277342 2.9553021652121356 122 122 111 0.14838006649974853 6 3462 5 1765 4 1623
15564 -2.2559191422417411 0.89969668646357148 2.651924858045879 124 124 112 0.29299574489816005 6 1367 5 1773 4 1628 3 1943
15565 -2.0450426107932995 0.89801746207463307 2.5971362622333318 136 137 123 0.067978919448112837 6 1375 5 1778 3 1957
15566 -2.5761584561312549 0.89110765836277472 2.7813007246400905 104 104 96 0.23381576854630656 6 1381 5 1793 3 1971
15567 -3.3386611064466658 0.89573790811730536 3.0279004166697936 150 150 140 0.12867002284420562 6 1411 5 1817 4 1684 3 2009 2 1995
15568 -2.6248982049952874 0.87812716066328445 2.8563820304352805 102 102 95 0.23753724319219674 6 1440 5 1826 4 1688
15569 -2.2862757818128756 0.9030547336079866 2.7186465267947897 97 98 84 0.24816648630289428 6 3504 5 1843 4 1710
15570 -2.2773362690800245 0.89120969087680402 2.738559927706651 97 98 84 0.28346671240374172 6 3505 5 1844 4 1709 3 4258
15571 -2.4693779905590247 0.87306107182243875 2.8396957537659082 144 144 131 0.30997231992090785 6 1461 5 1864 4 1718 3 4270 2 2014 1 1851
15572 -2.0177081966131101 0.87336918711414535 2.7187861243172402 118 117 112 0.50218408222001698 6 1472 9 2886 5 1874 1 1852
15573 -0.42772486348897437 0.85869487115690768 2.2685963435600565 109 108 103 0.18626226508103727 7 1723 5 1876 4 1719 3 2024
15574 -1.9373152767328157 0.87776765805435408 2.6997274070279333 118 118 108 0.19620976166407683 6 1496 5 1894 4 1741 3 2051
15575 -1.44010889119723 0.87143527639101781 2.5728705956962048 120 119 114 0.12181360787703686 7 1733 5 1919 3 2062
15577 -1.6073158497103248 0.87831637835322107 2.6159966331343534 113 113 101 0.073389972681732668 6 1519 5 1922 4 1764
15578 -1.6408709505458492 0.86924793021341251 2.6490704728670749 99 99 89 0.20657304489401498 7 1746 5 1936 3 2078 2 2065 1 1886
15580 -1.9421870004956527 0.86555390208062266 2.7582546858670391 86 86 76 0.15806352663472634 6 1544 5 1954 4 1792 3 2098 2 2076
15581 -2.3869050757795636 0.89160046853105546 2.8437558959448994 124 124 114 0.29351758398374039 6 1540 5 1955 3 2118 2 2085 1 1917
15582 -0.57942964388611573 0.8278282272381704 2.4368285124901661 84 83 78 0.3713425280892943 6 3556 7 1836 5 1967 4 3879 3 2112
15583 -1.6313429131028439 0.86843406573444459 2.6765826262339711 126 126 115 0.11518084083906559 7 1803 8 1605 5 1972
15584 -1.9049729266148319 0.85952525418746806 2.7960915194897558 122 122 111 0.31854567570428777 6 3567 8 3450 5 2009 4 1845 3 2156 2 2108
15585 -3.1987821898066908 0.86014060437885786 3.180354697232143 143 143 131 0.34089590934029407 6 1582 5 2014 3 2171
15586 -3.272571523871695 0.8770574453425809 3.1710915181193529 90 90 78 0.18476018122595306 6 3558 5 2015 4 3896 3 2182
15587 -1.3357836119580373 0.86704377336776783 2.6165444079731932 86 87 73 0.23365655576810154 6 1603 5 2028 4 1844 3 2155 2 2127
15588 -0.84357453858802778 0.84090513859822424 2.5319343743599401 130 129 124 0.19183366442750518 6 1627 8 1701 5 2043 4 1868 7 1907 3 2166 2 2125
15589 -1.9774241873321576 0.84903139695882113 2.8612406397759647 95 95 88 0.12693735113915602 6 1633 8 1654 5 2058
15590 -2.3067457695139577 0.84925422598755285 2.9627885603252921 97 97 87 0.11329341068991032 6 1635 5 2068 4 1891 3 2207 1 1983
15591 -2.2404651294185762 0.84041111281883951 2.9700819515423098 91 91 81 0.19894380336190412 6 3600 5 2082 4 1905 3 2227
15592 -2.4284440561203544 0.84058908979623481 3.0275252056113429 99 100 88 0.28174935175464222 6 1657 5 2087 4 1908 3 2243 1 2015
15593 -2.4330157984575362 0.83829500696297587 3.0487442401934088 100 103 90 0.17439995840441866 7 3812 5 2111 3 2261 4 1939
15594 -2.1789502615276772 0.83409028799789964 3.0106593354074818 99 98 93 0.17068119004772511 6 1756 5 2157 2 2248
15595 -3.0013993355794986 0.82651875291082988 3.2733750845849352 155 155 146 0.2589630314953561 6 1758 5 2158 4 1996 3 2331
15596 -3.0528280962691698 0.8416326850869571 3.2573116033146281 126 126 116 0.15359211055242236 6 1747 5 2160 4 1990 2 2275 3 2326 1 2090
15597 -0.51173364306707925 0.82861504717387213 2.5239647844343698 104 103 98 0.39393175157593502 7 3885 8 3573 5 2161
15598 -0.51159067525078172 0.82241637700924164 2.5362111507632519 104 103 98 0.55938368158032936 8 3574 9 3093 5 2162 3 2298 4 1978
15599 -1.7544054009648218 0.84346973727074748 2.8760546515028418 119 118 113 0.36865631180176578 6 1781 5 2173 1 2082 8 1773
15600 -0.60765684577763668 0.82076344836131288 2.5850323119109841 114 113 108 0.33301633329753522 10 3140 5 2189 4 2007 6 1810 3 2322
15601 -2.9956931034078105 0.8346496014480107 3.2967746909661906 89 88 82 0.20629285150097085 6 1818 5 2225 4 3998 3 2389 2 4257 1 4017
15602 -2.2360189400780546 0.83673580223523325 3.0789968736950515 83 82 74 0.32863873128102294 6 1852 5 2265 4 4004 1 2148
15603 -2.9253097168757938 0.82959911737409731 3.3073344586596707 93 93 83 0.33462438657277843 6 3685 5 2273 4 2114 3 2422 2 2379
15604 -0.62311083406881818 0.81252803930245521 2.6565841975111559 94 93 88 0.16017673629508802 7 2159 5 2279 4 2099
15605 -2.0496003903455455 0.81347624608295999 3.0881607166948495 94 93 88 0.36752995626861212 6 1883 5 2306 3 2430 2 2376
15606 -2.1398932537655262 0.81311218993544132 3.1191591283470301 119 118 113 0.24314681080363845 6 1899 5 2309 4 2136
15607 -2.1679663449338991 0.81561859351816057 3.1247400636703242 95 94 89 0.30204981236152134 6 3699 5 2310 4 2137
15608 -2.8991048848160648 0.81567974155908041 3.3460119976162233 131 131 119 0.21063248140406735 6 1910 5 2319 4 2153
15609 -2.1167764153776396 0.8140003657088114 3.143245534482622 114 113 108 0.226088942810975 6 3729 5 2367 4 2195 3 2488 2 2453
15610 -1.3052434285032606 0.79890720917938429 2.9286393677826945 103 103 91 0.27372901037257991 10 1688 5 2376 3 2474 2 2427 1 2233
15611 -1.6378648716118576 0.81971223056533926 2.9921096765971922 82 81 76 0.1780604319639473 6 1985 5 2378 4 4054 3 4448 2 4300 1 2255
15612 -2.8061164883948577 0.79517163191076468 3.386038064733035 173 171 159 0.21429375337221471 6 1977 5 2385 4 2213 3 2506 2 2488 1 2281
15613 -2.8061939835566103 0.79514492863697517 3.3861418801874219 173 171 159 0.21709338785232682 6 1976 5 2386 3 2507 2 2487 1 2280
15614 -2.7924689028561995 0.79551368317223148 3.393000680095847 131 129 117 0.15450173040631857 6 1997 5 2408 3 2539 2 2516 1 2305
15615 -0.52595820583429276 0.79237296753631037 2.7240288527920611 117 116 111 0.20337350688141603 7 2304 5 2411 4 2220 6 2021 3 2492 2 2447 1 2251
15616 -1.5239207632159648 0.8041866819086616 3.0030255089227431 115 114 109 0.23214247061999999 6 3754 5 2413 4 4058 3 2511 1 2278
15617 -0.54978022085686351 0.7912596914634854 2.7373136228358854 111 110 105 0.2484305115323989 7 2311 5 2421 4 2227 3 2501 2 2469 1 2269
15618 -1.7878475367433979 0.80994076871255194 3.0746738558966289 75 75 70 0.39715123798985719 6 2029 5 2429 4 2243 3 2529 2 2492 1 2284
15619 -2.2643462158697014 0.80448448781325632 3.2265025706099086 91 90 85 0.19957857097993276 7 2253 5 2430 2 2513 4 2245
15620 -3.0034232518089521 0.80563710868657368 3.4450309487244515 65 64 59 0.31821528188038106 6 3748 5 2431 4 2261 3 4483 2 2533 1 2322
15621 -1.4681363193886017 0.79916826537888375 3.0002120278047912 95 94 89 0.23832095785785987 6 3757 5 2434 4 2238 3 2526 2 2482
15622 -2.2586786083404036 0.81580499044817367 3.2117308707029837 117 116 111 0.18006608588726716 6 2032 7 3970 5 2445 4 4070
15623 -2.0555946380667818 0.82890520007203117 3.1418111372271853 116 115 110 0.30054937899001782 6 2064 5 2473 4 2282
15624 -0.67404124706764856 0.78894463512276714 2.8087768380075011 117 116 111 0.2145164165111704 6 2106 8 2178 5 2493
15625 -2.1966543759410619 0.79010740870644203 3.2601154917291351 125 124 119 0.20462394663012412 6 3781 5 2499 4 2318 2 2575 1 2346
15626 -1.3597756462261761 0.79492240251247936 3.0056192662603678 156 156 144 0.17182808962442622 6 3792 5 2506 4 2305 3 2588 2 2556 1 2336
15627 -0.21796059794671369 0.7871698042654377 2.6884272269429332 108 108 96 0.29102016328523794 8 3800 9 1869 5 2539 4 2323 6 3821
15628 -1.8841994771908559 0.80255950051298508 3.1609442147364026 120 119 114 0.13039100029543557 7 4029 5 2541 4 2349 1 2362
15629 -2.7256622534620298 0.7897387587346929 3.4363546520035055 175 172 157 0.45426718531892396 8 2069 5 2552 4 4114 6 3809 3 2640 1 4104 2 4349
15630 -1.7445652593618 0.80458387647925589 3.1286216911534628 83 82 77 0.31538522951274434 7 2410 5 2555 4 2366
15631 -2.0277816254942329 0.80725497258365386 3.213117688637269 86 85 80 0.5523524774084706 6 2147 5 2566 4 2373 2 2616 3 4528 1 2400
15632 -1.4172014233021877 0.79732883252374798 3.0559321461805973 84 83 78 0.22068915667448494 7 2438 5 2585 4 2391 3 2657 2 2614
15633 -2.0029097938550655 0.7859097185437206 3.2614765110249531 123 122 117 0.13958344644531315 6 3845 5 2630 4 2419 3 2686 2 2647 1 2417
15634 -2.0017411356180808 0.78392049347359272 3.2650906504045185 123 122 117 0.18728347898121819 7 4069 5 2631 3 2687 2 2648 1 2418
15635 -2.3033961160640013 0.77844618124182541 3.37091023003192 88 87 82 0.22937552479389897 6 2208 5 2641 3 2711 2 2677 1 2441
15636 -1.9444921175663259 0.78913326037430087 3.2491454590790316 83 82 77 0.35365512496297574 6 2217 5 2646 3 2710 4 2451 2 2670
15637 -1.7491449161674295 0.78362098709102879 3.2086726561640084 80 81 75 0.23419611936831519 6 3875 7 2496 5 2661 4 2455 3 2721 2 2681
15638 -1.4610335293145338 0.79292903811985915 3.1102387686328554 76 75 70 0.27583067795729166 6 3878 5 2669 4 2460 7 4103 3 2726 2 2679
15639 -1.8264024529219374 0.78551080436818865 3.2358312721174891 79 80 74 0.16809201278580729 6 2251 5 2678 4 2486 3 2740
15640 -1.7579771808908136 0.7870071123946385 3.2147702847708235 111 112 106 0.24477825085587229 6 3882 5 2688 4 2498 3 2745 2 2700
15641 -1.7569543833799739 0.78515538045562172 3.217819521233162 111 112 106 0.33472754902734875 6 3883 5 2689 4 2497
15642 -2.783635183352057 0.77655805705286962 3.5397614677587268 120 119 114 0.3061862214491059 6 3886 5 2694 4 2524 3 4558 2 2722 1 4149
15643 -0.82722143655805858 0.77763494219445617 2.9659718691280537 82 81 76 0.21994311619402307 6 2283 5 2702 1 2467 3 2752 4 2506
15644 -1.3907427234226131 0.77029976592679472 3.1479349415440461 73 72 67 0.44011562185614167 6 3901 7 2577 5 2709 4 2511 3 2761 1 2486
15645 -1.460363644974088 0.78933323104729558 3.133792720496992 125 124 119 0.40893434259699996 6 2271 5 2710 4 2513
15646 -2.5657183049618784 0.77095471740433963 3.4971247284237039 135 135 127 0.28044964936349437 6 2266 5 2711 4 2551 2 2739
15647 -2.8856022085311985 0.77622135151791316 3.5825023006567869 94 93 88 0.19056845052911364 6 2259 5 2712 4 2552 3 2794 2 2749
15648 -2.8586268451393892 0.77869780443550229 3.5727368642324198 150 149 144 0.1466925993029001 6 2268 5 2723 4 2559 3 2802 2 2747
15649 -1.6351302305414228 0.78727795483579455 3.1986836531389442 112 111 106 0.40202999259232752 6 3902 5 2727 4 2548 3 2784
15650 -0.90658406545043546 0.77008050690932484 3.0103592785247724 77 76 71 0.17147361318477153 6 3909 5 2734 4 4174 2 2713 1 2484
15651 -2.2022645749835688 0.76891874712926411 3.402382048593938 90 89 84 0.19842540122712868 6 2302 5 2748 4 2565 3 2806 2 4408 1 2520
15652 -2.8486579428247083 0.77899315488966103 3.5883471173929804 89 88 83 0.32145722080285238 6 2311 5 2766 4 2590 3 2837 2 2792
15653 -2.4050508662241303 0.76288329158732748 3.4820429070471093 144 143 138 0.30619964933100008 6 2321 5 2776 4 2581 3 2822 1 2539
15654 -2.407132468271183 0.76514431225806323 3.4788059934096007 144 143 138 0.31877059408846836 6 2320 5 2777 4 2582 3 2821 2 2773 1 2538
15655 -2.8640665895044974 0.77102023378932794 3.6097401144218404 93 92 87 0.10312256739910802 6 2322 5 2779 4 2599
15656 -1.9759664939548782 0.77133309909330972 3.3468317616285375 155 154 149 0.12916832941549916 6 2352 5 2782 3 2830 2 2776 1 2535
15657 -1.9752527632329964 0.76996871491375463 3.3487096268191041 155 154 149 0.04430138981339856 6 2351 5 2783 4 2588
15658 -1.4045288320792606 0.7813409912045175 3.1677428293587964 76 75 70 0.045333654364585446 6 2379 5 2804 4 2605
15659 -1.7604389173599331 0.76555166861007395 3.3003518503936315 72 73 67 0.16736180270356676 6 2381 5 2807 4 2606 1 2543
15660 -1.7977414589898952 0.7829373308147427 3.284107823183811 118 119 113 0.091100894258556012 6 2382 5 2810 4 2615 3 2840
15661 -2.1890662105878769 0.76687608958151232 3.4296723760336372 93 92 87 0.07404136347079153 6 2385 5 2812 4 2624
15662 -1.3929869562352344 0.76672674760521553 3.2002322135362018 149 148 143 0.1773784638142776 6 2409 5 2823 4 2626 3 2857 2 2795 1 2556
15663 -18.204185222665675 1.7442350364812038 -17.791558437931265 117 120 89 0.26223371362287135 6 2631 7 2799 8 2502 11 1837 5 3064 9 2089 12 1758 4 2945 3 3318 2 3300 1 3072
15664 -11.987301588748071 1.5644753546929966 -10.140836421184058 68 73 67 0.25144812368471486 6 2798 13 1910 5 3218 7 2954 4 3123 3 3485 2 4728 1 3224
15665 -12.058552645933506 2.3799189477397955 -12.9410439812007 38 43 36 0.2497104087453931 8 2709 10 2245 5 3282 4 3180 7 3008 3 3545 2 749
15667 -18.743571000016075 7.520864215943412 -41.566419475203439 35 43 45 0.42802699356150548 29 2898 5 3317 2 834
15668 -51.327323054833016 12.765531425237944 -53.166175134794699 66 75 80 0.24105626900576493 7 3141 21 1929 5 3375
15669 -42.953992216258335 13.383589226363945 -53.56308524777036 87 95 80 0.1967343692207858 6 757 34 1765 5 3431
15670 -19.356332065000945 9.5673008373106008 -41.118295522580709 55 58 41 0.31674300167896263 6 3045 29 2963 5 3449 30 1965 4 905 3 1103 2 1104 1 1018
15671 -0.49276036587296834 -0.26401310500363484 2.4107061377727903 0 0 0 0.17167032545013722 6 3049 12 2122
15673 -1.7001481864296284 0.29104915128048114 0.15750800169453366 107 133 156 1.7360291885024697 6 828 11 4028 5 3491 10 4342 4 3405 3 3769 2 3695 1 3495
15675 -11.00913639258617 3.1879095661788015 -9.1282025744501976 115 115 107 0.73157961801840288 6 3153 7 3334 8 2987 9 2508 19 2324 5 3537 4 3470 3 3836 2 3775 1 3577
15677 -11.989819724244473 3.1320292376993715 -8.2045969413973854 165 152 126 1.300536415730378 6 903 7 1002 11 642 5 3547 9 696 4 1053 2 1280 1 1207
15678 -2.8306082851259982 0.62908105950126003 0.14475293068315254 35 55 56 0.49261965425324278 7 1023 5 3562 8 3020 4 1075 3 1310 6 3175 2 1299 1 1227
15679 -3.2441113436095468 0.71697599513344934 -0.010550214514535958 47 61 69 0.80417008364157028 6 3180 7 3360 5 3564 4 3494 3 3862 2 3807 1 3609
15680 -3.3546241877407206 1.0657731590605519 0.032030689213063665 39 46 46 0.25849615053299446 7 4532 5 3590 4 3510 6 3202 3 3892 2 3825 1 3634
15681 -0.58460149117240245 0.85273343864125462 0.1789391658806182 65 68 64 0.3961105140252052 7 3399 5 3596 4 3521 3 5135 2 3834
15682 -3.7377410937508331 1.3121078726819588 -0.16523783081288737 155 158 150 0.26151772117757688 12 3404 5 3599 3 3905 2 3840 1 3645
15683 -3.7960984524158241 1.3892206893678185 -0.17261934880848639 104 104 94 0.65131094580960813 13 2294 5 3605 4 3528 3 3916 2 5008 1 3650
15684 -4.2573010627535357 1.3779449753738433 0.27882803026660979 108 104 93 0.77892099868513032 11 3456 5 3619 2 3869 1 3670
15685 -4.2632719670949788 1.3735416885349276 0.49998550387127794 134 131 120 0.35665465971535731 6 3243 9 2621 5 3626 4 3564 3 3960 2 3880
15686 0.39486281098691545 1.3804301708286164 -0.86566133733133854 92 88 79 0.56328563593398917 6 3249 8 3113 5 3631 2 1423 1 3685
15687 -1.4504176115452745 0.90263277738449843 1.054466806442641 89 93 94 0.52842025071174581 14 2189 5 3637 1 1353
15688 0.2545385910168077 1.2706809146166114 -0.37051500151882821 86 82 73 0.53529162978925404 8 4301 5 3639 2 3890 1 3693
15689 -3.4239301930983403 1.2309706791834627 0.88374785636429321 119 115 104 0.25603263546954397 7 3445 5 3640 4 3578 3 3975 2 3893 1 3697
15691 -0.22289743983653387 1.1145785538395669 0.6762394684269204 105 105 94 0.42082409411884686 9 2671 5 3662 4 1205 3 1487 8 3130 10 3815 2 1452 1 1406
15692 -0.35190405263638908 1.0978407059655102 0.87816986693536847 118 113 109 0.4063014363450474 7 3488 5 3667 4 3622
15694 -0.20763267071582614 0.97982106075491571 1.4644513060839774 69 68 63 0.19836221974165061 8 4362 5 3710 4 3664 9 3806 10 2714 3 4086 2 1587 1 3778
15695 -1.4630591097664412 0.96469977016852004 1.9223530079250428 106 107 89 0.193715533820118 7 3530 5 3724 4 3669 8 4366 3 4096 2 3988
15696 -0.74534422073993101 0.91777661132685595 1.9261692635512382 100 101 87 0.31156221757732783 8 4391 5 3755 4 3699
15697 -1.7487650587788379 0.92988785324112333 2.2378149617747813 106 106 94 0.29974635532042848 7 3579 5 3761 4 3707 6 1188
15698 -0.43334813469976541 0.90946667855555252 1.9013923691315473 77 76 71 0.18614861213028125 6 3400 7 3587 5 3768 4 3713 3 4145 2 1734 1 3817
15699 -2.6313371894682827 0.92278849531819385 2.6028891880151215 126 126 116 0.36888030414485928 6 3420 5 3795 3 4165 2 4046
15700 -1.8594447752992938 0.924328435013543 2.3753193682606026 111 111 99 0.24663718395815168 6 3422 5 3797 4 3729 3 4168 2 4048 1 1680
15701 -2.0999722611496714 0.94838264009030515 2.4289670253682765 111 111 99 0.26380198207004885 6 1293 5 3807 4 3745
15702 -1.959511978606667 0.91993664470774927 2.4500977175174063 106 106 94 0.44525151772928084 6 3433 5 3814 2 1837 3 1850 4 1545 1 1708
15703 -2.1721377579952645 0.92608845188488986 2.5045646423109091 106 106 94 0.19494348572861744 6 4469 5 3815 4 3752 3 4193 2 1841 1 3847
15704 -1.6673503436286765 0.91937152276392542 2.3698338246664892 142 142 130 0.2064975179796221 6 3440 5 3819 4 3755 3 4190 2 4061 1 3846
15705 -1.1806838926090197 0.90050775417672857 2.2744734766947619 83 86 79 0.30112218412048275 6 3450 7 3640 5 3834 4 3759 3 4195 2 4069 1 3852
15706 -2.3344305024279071 0.90199789392828167 2.6624632704978097 132 132 120 0.58668995782581657 6 3459 5 3854 4 3787
15707 -1.6017213460240731 0.89823019932572101 2.4704371702535033 83 83 73 0.19732680271552197 6 4494 5 3858 4 3798 3 4230 2 4099 1 3885
15708 -1.5975691872533369 0.88874971903748412 2.4898586890565104 83 83 73 0.17716857666339481 6 4495 7 3674 5 3859
15709 -3.3730526788092949 0.90810337621079695 2.9864329716220896 103 103 91 0.3967835057725928 6 3468 5 3860 4 3805
15710 -2.3080951156277063 0.88887735062411077 2.7203418632548297 100 100 88 0.32885695635348966 7 3675 5 3864 4 3808 3 4244 2 4106 1 1817
15711 -2.4712620232075988 0.89596115226701545 2.7538363865977864 95 96 82 0.14643543628897168 6 3481 5 3865 3 4240
15712 -0.58778266142933122 0.85055861383939491 2.3289920204356176 111 110 105 0.40091276751445976 7 1724 5 3897 3 2025 4 1715 2 2002 1 1836
15713 -1.2065945412494372 0.87244590691410162 2.4794800178778478 85 85 80 0.30075766005315591 7 3726 5 3899 1 3912
